# .PCD v0.7 - Point Cloud Data file format
VERSION 0.7
FIELDS x y z intensity
SIZE 4 4 4 4
TYPE F F F F
COUNT 1 1 1 1
WIDTH 1420
HEIGHT 1
VIEWPOINT 0 0 0 1 0 0 0
POINTS 1420
DATA ascii
4.3278656 2.6395426 2.0145733 60
4.3021588 2.630923 1.7997979 59
4.2811961 2.6197507 1.9602629 70
4.2093124 2.6192961 1.793579 67
4.7680564 2.3239207 1.7142353 94
4.205153 2.6136744 2.0571923 80
4.7874331 2.3251648 1.6496553 108
4.2018685 2.6152999 1.9253849 63
4.2068877 2.6272068 1.8596753 59
4.752039 2.3477092 1.7155685 102
4.5353384 2.4332387 1.7466909 56
4.7650356 2.2619171 1.6484051 103
4.2121649 2.8001564 2.2056365 31
4.5630178 2.6291068 2.4017844 47
4.6596537 2.3445606 1.6797819 36
4.5460196 2.6148152 2.5590627 48
4.523839 2.635318 2.3960073 46
4.451232 2.6330469 2.2330861 49
4.4712505 2.6247125 2.3892992 47
4.4442086 2.6268587 2.5392606 48
4.4470739 2.6343555 2.131043 60
4.4840379 2.6096129 2.7554965 55
4.3676391 2.6279423 2.3753686 52
4.3669024 2.638942 2.1265802 60
4.3825474 2.6308446 2.0777242 53
4.3959846 2.6339138 1.9946833 54
4.3744993 2.6151791 2.7283936 55
4.3624043 2.6099243 2.5257883 45
4.3618331 2.6194639 2.2164435 61
4.7564249 2.4059443 1.7126272 127
4.2807517 2.6329844 1.8537943 71
4.8430858 2.3400397 1.5660926 107
4.292448 2.6037443 2.5359542 51
4.2997828 2.6118789 2.3733261 59
4.3071542 2.6179414 2.2121663 64
4.2814541 2.6224504 2.1030805 70
4.2834306 2.5861542 2.7523143 55
4.280827 2.6063507 2.706151 48
4.2099247 2.6106176 2.3627739 62
4.2052078 2.6370463 2.100441 70
4.2118344 2.630208 2.166775 74
4.2098503 2.5939889 2.4997663 61
4.8403935 2.2628357 1.5625077 76
4.2002144 2.587651 2.7000582 58
4.1236806 2.6322451 2.1268539 72
4.1243668 2.6258438 2.1662374 71
4.4938803 2.4638546 1.7677519 46
4.773304 2.2425096 1.7115029 87
4.6113901 2.5697451 1.7814895 47
5.6083317 1.8508983 1.385015 78
4.6818242 2.5620666 1.7774321 61
5.6127963 1.8152874 1.3823522 56
4.853241 2.1733146 1.434021 81
4.4874101 2.6362023 1.8411551 55
4.5348592 2.5924659 1.786157 49
4.4799538 2.6062493 1.7894415 48
4.7228084 2.2300987 1.1639971 116
4.1345129 2.5436516 2.3505795 85
4.1243467 2.548737 2.2094839 83
4.3622632 2.6380875 1.7965124 71
4.8012714 2.1766524 1.4901272 112
4.2039275 2.4928031 1.593205 57
4.3029847 2.4382653 1.5839477 110
4.4589553 2.3564062 1.2985275 91
4.2969975 2.3325148 1.5258315 101
4.5358086 2.2358041 1.4812011 131
4.0286145 2.5575888 2.6549473 88
4.3998966 2.3247128 1.5591675 59
4.7553277 2.3771536 1.6537406 64
4.3657022 2.2410545 1.5283194 91
4.5209246 2.2325692 1.3720719 126
4.4569135 2.2345142 1.4577634 108
5.4292436 1.7051442 0.027641499 23
4.4547586 2.2197843 1.3768605 125
5.4213972 1.6562723 0.061240844 17
4.3159795 2.3110869 0.63407278 25
4.3640766 2.2335255 1.4979548 97
4.2848177 2.3069413 0.64586532 35
4.7567139 2.3010857 1.7141173 97
4.2242966 2.3082011 0.66943765 37
4.1445546 2.2901142 0.69600075 25
4.1258283 2.196624 2.5587878 81
4.1256771 2.2049663 1.8540061 82
4.1206775 2.1992395 2.3262393 88
4.1227245 2.2374802 1.6531621 91
4.1253514 2.1741993 2.7578185 85
4.1590161 2.1503079 2.7652626 73
4.1528664 2.1554458 2.5470583 75
4.8419523 1.6184096 1.1940792 106
4.8491669 1.3713006 1.2135288 129
4.1204014 2.1944778 2.0576172 73
4.842083 1.2855092 1.2089843 116
4.843524 1.226468 1.1076008 117
4.12675 1.7922785 0.56564021 124
4.7752938 1.15523 1.298172 123
4.6853495 1.1626064 1.3103302 126
4.4668078 1.3635694 1.0945705 86
4.6037717 1.1635128 1.3002928 126
4.8425746 0.96270663 1.0291202 56
4.8439116 0.95181441 0.9904207 113
4.7601452 0.74409008 0.97377682 96
4.7069964 0.86775374 1.043707 110
4.5227947 0.99431276 0.96367097 110
4.1375012 1.1944423 2.3015215 92
4.3716111 0.57005167 0.085747801 33
4.6372242 0.23927107 1.2046005 111
4.2840471 0.67303109 1.0169972 125
4.0460324 0.78308189 2.7230091 33
4.2058029 0.43166253 0.081365049 30
4.1330185 0.47128212 0.083139576 26
4.1247077 0.37177631 0.080625862 29
4.2517748 0.15993968 1.2323948 130
4.0647869 0.33176002 0.080797359 28
4.0180435 0.32418987 0.088721856 30
3.9716964 0.29024699 0.086904123 27
4.6305866 -0.66901261 1.0543453 158
4.5318499 -0.49297822 1.0029634 127
5.7231412 -2.5746498 0.43229446 100
4.1459165 -0.027341951 0.45490292 47
5.6205311 -2.5059323 0.45589909 73
4.6900263 -1.0344831 0.085536465 32
5.4568129 -2.27407 0.51367021 119
3.8981676 0.2461085 0.08710999 28
4.5183492 -0.82053161 0.96630847 149
4.6356926 -1.0568279 0.088608801 33
4.4831233 -0.76995957 0.64290953 109
4.445488 -0.82061303 0.66032588 110
4.3713837 -0.82571095 0.66496038 106
4.1502352 -0.63670444 1.1316919 82
4.3708196 -1.2309732 0.080575272 34
4.3298821 -1.2355241 0.085554242 25
4.2203493 -1.3489419 0.091738828 17
4.3881617 -2.1672132 0.53937083 58
4.4273939 -2.2547197 0.34619212 58
4.3048406 -5.0263023 1.3376467 7
4.1293817 -2.7208626 0.418874 70
4.2564492 -5.1706319 1.2984554 58
4.5382886 -4.2334909 1.2834123 118
3.9325755 -4.3525114 1.2399606 3
4.2213101 -3.5297358 1.0582074 32
4.1555395 -3.3308706 0.41846067 60
4.2123833 -3.5869548 0.088711016 23
4.2257113 -3.6555943 0.13840494 48
3.927402 -5.0985484 1.5021358 2
3.8454862 -4.756175 1.3640641 2
3.8408656 -4.7329435 1.2109764 2
3.8058174 -4.7177329 1.3672916 2
3.804348 -4.8504543 1.5157331 2
3.797708 -4.8233495 1.3605713 2
3.8224406 -4.928587 1.1950849 2
4.1381826 -3.8214262 0.34720638 82
3.823915 -5.2252078 1.4974803 1
3.7207594 -4.8987999 1.3569074 2
4.1375613 -4.0827613 0.25083998 20
4.6004863 -3.9786394 1.2032033 27
4.6244712 -4.1384487 1.1886483 75
4.0454292 -4.3390946 1.138376 3
4.2846255 -5.218749 0.55222285 5
4.2983265 -5.3805442 2.8873091 4
3.9135106 -4.189064 0.86411899 1
3.9123018 -4.2980905 1.293911 3
3.9930103 -4.6095109 1.1148174 3
4.0549607 -4.847002 0.93276793 4
3.9936485 -4.7303433 1.4147331 2
3.9221606 -4.4504418 1.1314313 2
3.9599791 -4.7231998 1.2605046 3
3.9347322 -4.6299682 1.1144788 2
3.9475944 -4.8054428 1.2545048 3
3.8784673 -4.529274 1.1252546 2
3.8575969 -4.6937013 1.1103164 2
3.8581319 -4.8303003 1.2542404 2
4.2576141 -5.1364932 1.2770633 4
4.0185103 -4.4840369 1.1766562 3
3.9331965 -4.3994312 1.1860472 2
3.9872074 -4.7306752 1.1554697 2
3.9351523 -4.6494508 1.1638125 1
3.8935962 -4.7399697 1.1571534 2
3.8439007 -4.6624784 1.3190591 3
3.8778348 -4.9352899 1.4576627 2
4.2622089 -6.5782652 0.98663425 1
3.8252518 -4.9911022 1.1365423 1
6.1459141 6.4769216 0.044797137 24
6.2025757 6.3539801 0.02639237 30
6.2198086 6.2747865 0.010260439 22
6.6848631 6.4404745 0.053068113 36
4.3688474 5.3225574 1.9040639 140
4.4332113 5.3033123 1.7713054 137
4.4283204 5.302917 1.7170771 131
4.4910026 5.3354011 1.6380821 120
4.3982525 5.3221917 1.533087 127
4.1907749 5.2964296 1.4505094 127
4.2460766 5.2952867 1.407099 112
6.7156773 6.3852839 -0.013305691 28
4.2566056 5.2379327 1.953774 114
4.3517289 5.3020124 1.9190793 135
4.2720432 5.2803531 1.8143559 89
4.3025231 5.2987318 1.637797 142
4.2289701 5.265687 1.5365474 119
6.8023839 6.3456264 -0.0096225832 30
6.2018638 6.1946616 0.042294592 19
4.4919419 5.3029537 1.3259318 110
6.7640553 6.3134527 -0.012232014 30
6.2647481 6.097333 0.0084142694 35
6.7815161 6.2229962 -0.027960971 24
6.2166038 6.0391283 0.0040499195 17
4.5233068 5.2778268 1.3201581 61
4.3928413 5.5640416 0.032153703 24
4.5606279 5.1984954 1.3408202 67
6.2138624 5.9716649 0.039920017 28
4.2174053 5.1040268 1.3975822 72
6.3510089 5.9447303 0.035468131 31
6.784709 6.0083928 -0.054493748 34
4.2934618 5.1013632 1.380221 68
6.7994328 5.9838223 0.025230935 29
6.292706 5.9114313 0.015195796 24
6.8261151 5.9327459 -0.0041798539 43
6.3046412 5.8259354 0.030538602 26
6.7664967 5.8509202 -0.00078422949 35
4.4969382 5.3071918 1.95163 144
4.2602482 5.2869983 1.2727268 102
4.2415509 5.2890959 1.1554312 185
4.177453 5.2991624 0.987863 130
4.4491897 5.3564005 0.85405898 150
6.7813239 5.8162661 -0.01971327 31
4.3382535 5.2711306 2.1202195 120
4.274292 5.2676497 2.0629365 132
4.3128262 5.2943149 1.941476 122
4.2592273 5.2571096 1.9046469 119
4.3491373 5.3003178 1.5356586 120
4.1748238 5.2186885 1.045388 89
4.2926636 5.2993798 0.82477582 131
4.1840124 5.2656856 0.8245737 114
4.2423 5.2520232 2.1415007 122
4.2423177 5.2580633 0.85583299 121
6.2865186 5.6455483 0.041372202 20
4.1265697 5.2219872 2.1031749 109
6.8588743 5.7326503 -0.003573427 26
6.3062005 5.5936203 0.0053595845 27
4.2723589 5.1493134 2.2681413 52
4.1653094 5.1313128 2.2681749 44
6.292532 5.4918814 0.028071241 17
4.2657895 5.0788321 2.4955244 16
6.3481421 5.4203553 0.00065143593 18
4.1834898 5.0087819 2.5174723 24
4.051343 4.9848695 2.5032041 39
4.3626242 5.0523901 1.2989519 141
4.4046717 5.1038103 1.2628821 87
4.3015041 5.0647511 1.1291348 136
4.254375 5.0597887 0.97347993 112
4.2165279 5.0070162 1.1062729 154
4.3267293 5.0531459 0.95869225 127
4.7762361 5.1267509 0.69968671 88
6.3015022 5.3184991 0.039358638 28
5.1285973 5.0726109 2.9182825 54
4.2560143 4.9856896 2.857789 26
4.0655365 4.9024119 2.553396 42
4.6705594 5.0524182 0.64403152 78
6.8405619 5.4189258 -0.0070940685 23
4.1536508 4.9411602 2.7675035 28
6.8494158 5.3271103 -0.020020576 29
6.3107057 5.2337379 0.0045108348 18
4.4471607 4.981514 0.057438891 32
4.5166483 5.3245087 1.7645404 128
4.4453835 5.3494978 1.5157958 137
5.0177751 5.0392756 0.63285935 96
4.3174829 4.8852129 3.1857841 38
4.4258785 5.3332057 1.9567826 130
4.3288155 5.2541351 1.773306 138
4.2778816 5.2607393 1.7511591 142
4.2250314 5.26684 1.4750118 118
4.5407295 5.3522129 1.3184031 127
4.9875908 5.0003333 0.59585106 81
4.670577 4.8960037 0.64509392 72
5.1260414 4.8625245 0.56869346 81
6.8526478 4.9747167 -0.001453232 26
4.5173721 4.7725711 0.067552425 20
6.8936887 4.9181008 -0.0024857742 28
3.7009785 4.5965428 2.7120509 28
4.1540604 4.9794073 1.3462014 106
6.9836054 4.8634157 -0.002566237 28
4.465837 4.6529617 0.057617068 38
6.910347 4.8069878 -0.061300445 39
6.8690443 4.7555747 0.0046956642 43
6.3966122 4.7792602 0.011355864 24
4.4402323 4.604609 0.068752244 16
6.8441887 4.7941222 -0.054129921 36
6.3667068 4.6574206 0.011782289 41
6.8481517 4.7017231 -0.036606766 30
6.9012794 4.6441641 0.061610445 42
6.3005028 4.5980935 0.010039108 27
6.8674669 4.5707798 0.060413606 42
6.3739128 4.6386738 0.011574162 31
4.4556084 4.5441899 0.053162068 26
6.8528786 4.6117325 -0.043815166 25
4.0420074 4.4282393 1.7291042 102
4.6227398 4.4832726 0.6925019 130
4.5575919 4.5230856 0.046681814 26
4.0714722 4.4782887 1.3224239 73
6.8525233 4.5333967 0.058343478 40
6.3730593 4.5090609 0.0081310999 33
4.6116414 4.4459786 0.69503397 138
4.497436 4.417541 0.044442635 37
4.5885091 4.4280257 0.70048589 111
4.5980163 4.3513794 0.90128905 133
4.7747998 4.3911529 0.75143301 64
4.4950323 4.3266683 0.044612028 40
4.1738157 4.3687577 0.88896036 31
4.7228894 4.247056 0.94076771 113
4.6181493 4.3145905 0.89691895 108
4.5054002 4.2897172 0.039774369 42
4.7281446 4.1650939 0.93748707 89
4.73002 4.0656953 1.0465499 90
4.1271868 3.8256481 1.2096965 30
4.1303039 3.7492785 2.25297 5
4.205245 3.7138274 1.3908136 3
5.4431124 6.4060426 0.0037133733 32
5.4627237 6.4004951 -0.0031535353 30
5.4159517 6.3939118 -0.0024589114 25
5.5335021 6.3029528 -0.001484707 20
5.5674686 6.2088399 -0.0040023122 27
5.5963426 6.2352371 0.012542455 20
5.6537385 6.070549 -0.014470231 19
5.573236 5.9565005 0.0074439328 23
5.6805334 5.9860616 -0.008718444 31
4.4499116 5.3202209 1.2172018 125
4.5129948 5.1235042 1.3461913 57
4.2090015 5.0821214 1.1067063 144
4.1200309 5.0486388 2.406234 36
4.3160524 5.1198945 1.0704147 74
4.4098015 5.1151614 1.0067465 114
3.8184633 4.8158178 2.1956553 62
3.9598899 4.4407411 1.8816364 104
6.3529382 4.6700068 2.8301587 35
6.3317862 4.6232719 2.8408203 20
6.3745461 4.6366539 2.8486328 30
6.37535 4.4965329 2.8343315 27
5.821002 4.4935293 3.0073712 35
6.3560719 4.4805799 2.8304946 26
6.0266237 4.4948096 -0.017601257 23
5.8301926 4.4106674 3.0104318 44
6.3965192 4.4273968 2.8045554 23
3.9561334 4.5219593 1.8075629 63
3.9450943 4.3814831 1.5480341 37
5.9729567 4.4617519 -0.019281033 23
5.8039923 4.4238186 0.01559644 25
4.1615214 4.3834052 0.82617176 25
5.8232975 4.3548784 3.0085938 44
6.4287825 4.3732424 2.8129771 21
4.4737201 4.3729091 2.6017354 66
6.4030447 4.2401299 2.8405969 40
4.5963402 4.2636008 2.4508829 88
4.5127745 4.2639246 2.4678845 80
4.4011278 4.2770791 2.4678986 72
4.1758308 4.1700087 2.3199544 31
4.7346411 4.0907888 0.90869129 60
4.5131321 4.1266627 2.597368 73
5.7561417 3.9259562 2.9987676 48
4.7471089 4.0441074 0.90136707 72
4.2180653 4.145999 1.0795897 24
5.7651243 3.8557897 3.0027821 52
5.7695189 3.8265648 3.0047789 33
4.4787068 3.9714403 2.6982422 56
4.3691897 3.9794528 2.4755859 66
4.2897472 3.9391129 2.4638672 88
4.3827786 3.9952669 2.6118557 81
4.2645087 3.92943 2.4599609 78
4.3419452 3.9773607 2.6117008 75
4.8613257 3.7008419 1.1663207 87
4.9628396 3.7015011 1.1419374 73
4.0455303 3.810905 1.4454154 165
4.8403878 3.5491018 1.163221 82
4.8578157 3.4740303 1.1743163 66
4.78546 3.2883453 0.86180437 110
4.7742515 3.2573941 0.86188376 114
4.0417309 3.5693707 2.3129883 113
4.7432022 3.2461522 0.87075812 119
4.0440936 3.5152094 2.1466396 104
4.8972235 3.1382258 0.81008434 76
4.9410863 3.0817766 0.78861034 90
4.772471 3.1269488 0.84698665 96
4.562355 3.203207 0.9219951 97
4.5651302 3.1887057 0.93091935 85
4.7465534 3.0400765 0.84377998 111
4.704752 3.0225146 0.8790977 117
4.5237737 3.1277018 0.56234765 79
4.6545172 3.0576539 0.87421405 106
4.5298562 3.1136312 0.55747753 63
5.6023035 2.5777919 0.026446084 24
4.662776 3.029943 0.86789924 100
4.3647614 3.1413271 0.95551628 123
4.3677344 3.1218147 0.62616116 112
4.1374283 3.2199607 1.0518044 96
4.4049253 3.1150751 0.60949403 101
4.3383956 3.1257472 0.63891071 119
4.2818804 3.1204553 0.66052282 110
4.294889 2.8501697 1.9239287 109
4.3347988 2.8104515 2.0113201 100
4.0442214 3.0044959 1.0015326 114
4.6432214 2.6387529 2.4135754 41
4.2032747 2.9013655 1.4942163 66
4.0515356 3.0117509 0.74461395 111
4.2816525 2.8456142 2.0948639 100
4.7576013 2.2416868 1.6693808 102
4.7695394 2.2224886 1.6059904 65
4.4402399 2.7057157 1.1741276 87
4.6834393 2.1654055 1.6275328 81
4.292675 2.4716549 1.7144736 114
4.3799481 2.4037743 1.6155542 134
4.2905221 2.4822202 1.663572 99
4.3269048 2.4848061 1.7161185 114
4.2411532 2.5216115 1.6560491 61
4.0345726 2.8566806 2.6537118 55
4.2429795 2.7880266 1.8186558 61
4.7552238 2.3753765 1.5908166 92
4.2342229 2.6963844 2.5149124 27
4.7730613 2.2406898 1.582661 98
4.8402929 2.1790004 1.4863793 120
5.5627699 1.7002059 1.3047048 122
4.922471 2.1697235 1.4779236 106
4.2002454 2.6369445 2.7313771 64
5.5002127 1.7040673 1.3119086 121
4.7730918 2.1780734 1.6945647 59
4.7656174 2.2068424 1.5792109 82
4.6871023 2.1806028 1.6981963 85
5.4299979 1.6985238 1.3193896 131
4.7625284 2.1573362 1.4925625 115
4.6314993 2.2373369 1.4733886 130
4.678977 2.2340107 1.3790727 114
4.1330662 2.6218841 2.7767434 65
4.7533822 2.2242661 1.5553697 73
4.2335291 2.5028613 1.7167217 71
4.3036618 2.4003239 1.6340102 107
4.6916442 2.1924393 1.5014362 120
4.2209406 2.2936318 0.47855124 26
4.2647824 2.5708618 1.7506102 97
4.1236086 2.2767484 0.50612903 34
4.1275878 2.2002921 0.86514711 33
4.16535 2.1442528 2.576602 74
4.2035785 1.9693059 1.1023608 30
4.8462691 1.2879239 1.0391244 113
4.8433185 1.2083707 1.0307616 114
4.8437877 1.1790776 1.0263671 115
4.5460548 1.4741517 1.1040038 126
4.5186396 1.5014223 1.1170598 105
4.8420091 1.0462196 1.0073241 103
4.1201758 1.8935542 0.74414545 106
4.1242576 1.8067158 0.7317366 121
4.1275516 1.7797512 0.33243546 98
4.7263184 0.98813725 1.0902104 128
4.8432055 0.7544567 0.9605056 107
4.8478274 0.68298489 0.9526366 122
4.6353292 0.92887318 1.0148238 128
4.7296557 0.76125109 0.89432412 107
4.3711452 1.0640081 0.92333436 85
4.4179549 0.95645487 0.97177112 112
4.2865715 0.8967185 0.52327847 93
4.264328 0.67452395 0.94135195 113
4.7943206 -0.51569951 1.1631013 119
4.6160622 -0.48345864 1.1792846 124
4.6069775 -0.55203789 0.044413581 31
5.3668337 -2.1403623 0.54570067 121
5.2850828 -2.1573329 0.55078501 115
4.7242627 -1.2112235 0.95827401 120
4.2015257 -0.24376911 0.64161336 96
4.337678 -0.55979848 1.1531569 130
4.5665989 -0.93773979 1.0242032 147
4.3760405 -0.61635214 1.1800265 145
4.4503303 -0.83081174 0.62598753 113
4.4577727 -0.93790424 0.53775543 110
4.4914961 -0.97332501 0.48925769 101
4.3753376 -0.88011557 0.48919418 117
4.2333975 -0.6049872 1.0153486 111
4.2851367 -1.4490082 0.63948423 108
4.3531399 -1.9109995 0.54838055 90
4.1258583 -2.8027494 1.2411999 26
4.4417028 -2.1948366 0.48816177 65
4.4235773 -2.3171012 0.56851327 80
4.4267521 -2.2464747 0.41135034 44
4.4485803 -2.3427424 0.73548621 78
4.4461899 -2.3352299 0.58801615 60
4.4377842 -2.3857169 0.83617288 61
4.4273014 -2.341527 0.230093 55
4.3326387 -2.1094968 0.35602689 29
4.4281864 -2.4004285 0.2036739 52
4.2331314 -4.8577008 1.1145103 5
3.7933128 -3.2387037 1.2517089 4
4.0913134 -2.2780237 0.35457814 43
3.7624841 -3.3182392 1.203774 3
3.7429557 -3.4317915 1.2418622 4
3.7078109 -3.3885298 1.241455 4
3.6947112 -3.4677541 1.2398307 3
4.193881 -3.2059541 1.0149246 27
4.0625253 -5.2942324 1.0829414 3
4.213769 -3.5625122 0.24306411 42
4.2880378 -3.7061555 0.062503979 23
4.2072086 -3.7030127 0.04816135 29
3.9570742 -5.2959747 1.0846298 2
4.1637282 -3.5252109 0.2617321 46
3.9072323 -5.2342792 1.0909699 2
3.9397488 -5.5502386 1.0641297 2
4.140461 -3.690336 0.027832931 25
3.8236008 -3.2035077 1.4423312 4
3.7664728 -3.2703876 1.2995604 3
3.7845492 -3.301352 1.1972655 4
4.0247331 -2.2745473 1.2865436 4
4.2527885 -5.2296791 0.57639802 4
3.7939649 -3.5400157 1.4233485 4
3.737711 -3.3379357 1.343022 4
3.6443973 -3.1681237 1.0370005 3
4.2584753 -5.3934298 0.59686971 3
3.6827426 -3.3272047 1.2979513 4
3.6698785 -3.1557374 1.1746207 2
3.6634161 -3.136549 1.0403217 4
4.1992378 -5.3518462 0.044838883 22
4.5286078 -4.1808543 1.1087624 42
3.6172805 -3.1644208 1.1747464 1
3.6171229 -3.1724803 1.0375537 3
3.8967013 -4.506721 0.076973833 24
3.6046968 -3.2310548 1.1690338 2
3.6578465 -3.5774286 1.4234564 3
4.0483522 -5.5354333 0.94272363 7
3.8223467 -4.4883132 0.052485116 16
3.6183195 -3.5309415 1.5696957 3
3.6496205 -3.6713376 1.4177841 2
3.9970179 -5.3596053 0.079774767 26
3.6336095 -3.8666975 1.5555006 2
3.9281931 -5.1947579 1.1509136 2
3.7819564 -4.5331864 0.055092461 18
3.9077363 -5.2576127 1.1466755 3
3.9000828 -5.3866816 1.1366709 3
3.861012 -5.3786702 0.048742115 17
3.6534817 -4.5487704 0.079025991 28
3.8138709 -5.4896941 1.1306897 2
4.2838497 -4.9582534 1.2185905 5
3.8006158 -3.2431228 1.3483343 4
3.8275008 -3.3523324 1.1993053 4
3.8064034 -3.3761251 1.1976833 4
3.8108921 -3.5125551 1.3292689 4
3.7602394 -3.4198682 1.1949292 4
3.7734189 -3.5910628 1.4690161 4
3.7352135 -3.3919976 1.2912596 4
3.6723733 -3.1829674 1.2176336 3
3.7588229 -3.6538181 1.4659863 4
3.7107949 -3.3735533 1.3016207 2
3.6263099 -3.1133943 1.2249283 2
3.6538367 -3.4643536 1.3356135 3
3.6093047 -3.2143037 1.2568358 4
4.034821 -5.3765364 1.1939884 2
3.9185991 -5.339694 1.0232656 1
3.928282 -5.5502152 1.1840271 3
4.4610453 6.01717 0.030336211 30
6.3046155 6.3388195 0.010555139 20
4.4568295 5.3167157 1.7304313 141
4.469305 5.334949 1.5347086 129
4.4106627 5.3346825 1.47619 113
6.3225179 6.0269814 0.0015522428 18
4.4708414 5.3044281 1.9181751 146
4.3977389 5.3170943 1.6379384 134
4.3291731 5.3002563 1.5165312 127
4.3243241 5.287416 1.7643512 146
4.3313603 5.2906179 1.7064914 134
4.2120113 5.2978787 1.5171765 126
4.7906036 5.3590302 1.3143659 97
4.3065724 5.2674427 1.960131 125
4.2949009 5.2746105 1.9074597 115
4.2642879 5.2611127 1.7603853 135
4.2761254 5.2875967 1.5354044 120
6.3941078 5.937788 0.030422708 35
6.3718462 5.8829942 0.010354662 25
4.6590848 5.1492848 1.3281249 63
5.5254326 5.2588921 1.2021731 101
4.2020049 5.0267143 1.3837889 79
4.4222403 5.3284612 1.221294 111
4.4525557 5.3131094 1.1161989 171
4.4072809 5.2936807 2.0389242 137
4.3107862 5.3226714 1.1556749 176
4.274498 5.3048377 1.0072976 131
4.3120642 5.2847695 0.79673898 130
6.4032469 5.4860392 0.044271521 28
4.3607516 5.2857757 2.1404784 103
4.357429 5.3099957 2.0247536 138
4.2528553 5.3100705 1.3219604 70
4.1762528 5.2944465 1.0762728 148
4.4013124 5.3330698 0.82448965 170
4.1813817 5.3127918 0.87941462 139
6.3084316 5.4052539 2.7810719 63
4.2121077 5.2492485 1.6370862 148
4.2716413 5.2407894 0.89836001 108
6.2810268 5.3402081 2.7429714 42
6.3784857 5.366303 0.021484375 40
4.4813724 5.2120633 2.2869496 44
4.3528762 5.1339169 2.3008671 55
4.0404191 5.1908927 1.016814 105
6.3670974 5.3589177 0.041121744 30
6.3808632 5.2178845 0.020507812 38
5.3620715 5.0656095 2.9613211 55
6.2819395 5.130424 0.030625381 38
5.4456887 5.0744801 3.0215402 61
6.3625231 5.1433625 0.025390625 40
5.4913425 5.0606031 2.9991293 54
5.699471 5.0814114 3.0176878 57
4.0426631 4.6896811 1.6256528 29
4.3641562 5.0254045 1.3337401 101
4.3484707 5.0290604 1.2170409 111
4.2164392 5.0006685 1.148129 81
4.330832 5.0326843 0.96630847 131
4.1944752 5.0090132 1.2404784 123
4.1787896 5.0126686 0.99755847 111
4.8190737 5.0241022 0.6627925 87
6.4307022 5.0819082 0.0035604294 49
4.5106196 5.3566942 1.385125 129
4.8697758 5.0291257 0.59686595 76
4.6665292 5.324389 1.317018 96
4.4083548 4.9489541 0.75341785 161
4.2804184 5.276423 1.6227262 137
4.1358662 4.5216837 1.3830565 5
4.976018 4.8750286 0.61328113 100
4.0975904 4.4722362 1.5561522 6
4.0484672 4.7341785 1.8432616 230
4.050952 4.7010107 1.8426512 27
6.2793579 4.4817891 0.036132693 8
5.7703247 6.3841839 0.047236048 23
5.7513161 6.2722101 0.0099371653 20
5.808568 6.1330004 0.0055383835 24
5.9570808 5.924078 0.00067449175 26
4.3149686 5.2734962 1.7134732 130
5.9298215 5.6800756 0.055204682 20
5.9539948 5.6018157 0.026754837 30
4.370224 5.2868075 1.0462857 252
4.3055792 5.3030753 1.0815921 254
4.2504282 5.2875357 1.9560934 133
4.2763443 5.2215953 1.0450714 163
4.9959607 5.3783231 1.13077 241
4.2924891 5.2730899 2.0589662 150
4.9511719 5.3169889 1.1772919 97
4.1264644 5.1870728 2.1431763 95
4.1094418 5.1644344 0.90924698 131
6.2362394 5.3738737 2.8462367 69
6.2013111 5.3539648 2.8518245 70
4.5244932 5.137362 1.2678221 115
6.2084579 5.2394443 2.817003 57
4.5168381 5.1274724 1.2695311 94
4.2960863 5.0918293 2.4798193 14
4.4838266 5.1152234 1.2780761 82
4.2165437 5.0629563 2.4791465 20
4.3111157 5.0440888 2.6069336 35
4.1561146 5.0299149 1.159117 57
4.209887 5.0066175 2.6326795 18
4.3096323 5.0147643 1.3212889 96
4.3191147 5.0324965 1.0830077 98
4.6607113 5.0477352 0.62304676 28
4.0408883 4.8414927 1.6229857 49
4.0405016 4.6217318 1.5477904 42
3.9497018 4.5587463 2.3618164 20
6.3873043 4.084053 2.8662109 27
6.3685265 4.0617361 2.8072929 50
5.7569304 4.1706481 3.0224609 37
5.7661495 4.0828938 3.0302734 53
6.3240581 3.9752092 2.8643651 52
4.2051926 4.4296694 0.75338781 27
5.7663841 4.0682473 3.03125 52
4.227747 4.3952093 0.79785144 27
6.3515706 3.8759348 2.8681641 32
4.4670839 4.2453375 2.7192764 65
4.4783444 4.2915692 2.5425432 59
4.5985026 4.2637677 2.4841433 85
4.547122 4.1633439 2.5448968 82
4.4610329 4.221189 2.4785156 100
4.494832 4.1838856 2.5168622 81
4.3828998 4.2219396 2.4413629 83
4.3000603 4.1654406 2.4694567 71
4.2488422 4.1757927 2.3032227 74
4.4448175 4.1359572 2.6748047 46
4.6589637 4.059299 0.93017566 22
4.2431397 4.1659346 1.0732421 35
4.2714968 4.1029038 2.3100586 63
4.2824817 4.1493077 2.3191383 80
5.6513195 3.6908679 3.0273438 42
5.6319318 3.6817672 3.0234375 44
5.6090679 3.645752 3.0205078 32
4.283433 4.0894213 2.4516602 64
4.5294347 3.9751828 2.7109375 62
4.3933244 3.9956176 2.5517805 54
4.3713145 3.9687433 2.6708984 69
4.3156347 3.9892895 2.7055919 93
4.2843266 3.9116788 2.4648438 72
4.2471361 3.916455 2.4575195 70
4.1824017 3.9334867 2.4443359 58
4.9216919 3.3886163 1.1528319 73
4.04175 3.812078 1.5901488 120
4.8599129 3.3910351 1.1775151 84
4.7656617 3.3378797 1.0768061 91
4.7835789 3.2110929 1.1143957 127
4.6973352 3.2264106 1.0673982 51
4.9165397 2.978554 0.7026366 41
4.8109603 2.9609394 1.0631106 102
4.8575611 3.0021029 0.72412097 102
4.5330763 3.1380978 0.83935535 96
4.7403545 3.0023618 1.0844725 63
4.721067 2.9870059 0.75976551 108
4.7371273 2.9599569 0.7495116 98
4.8755536 2.8544228 0.69287097 80
6.1260786 1.9965663 0.19811675 97
6.1163764 1.9739748 0.18652332 92
4.4240198 3.1173055 0.86572254 44
4.3985643 3.1211708 0.87353504 106
4.2855167 3.1364229 0.95154715 114
4.4626741 3.0211716 0.44238269 51
4.2968974 3.1268673 0.53124988 93
4.297101 3.1141737 0.89990222 112
4.2842503 2.818886 1.8728026 53
4.2716293 3.1190155 0.90771472 98
4.3478565 2.7503159 1.9304198 45
4.2159147 3.1471894 0.90320808 115
4.1229172 3.1464186 0.95369893 99
4.3945913 2.5155606 1.7438964 129
4.4206548 2.4737363 1.741516 63
4.2942553 2.560102 1.7492064 70
4.1370916 2.9817572 1.2514647 91
4.2303553 2.8909082 1.2229003 75
4.9830403 2.2415025 0.039062381 36
4.3603849 2.2768235 1.6498231 110
4.3105311 2.7635138 1.8914794 54
4.8471756 2.1870737 1.0893553 117
4.844748 2.0947378 1.0776366 115
4.2858105 2.5995226 2.8535156 57
4.2818618 2.6021452 2.4306641 58
4.8275623 2.138757 1.4121065 60
4.2155128 2.605145 2.3004978 74
4.8075886 2.0999928 0.021781558 18
4.8453894 2.0547037 1.0717772 121
4.2194324 2.5972385 2.8408203 54
4.6410427 2.2066712 1.5301813 50
4.7505407 2.1225293 1.0952147 119
4.5683346 2.2783227 1.6842498 72
4.6440377 2.1862614 1.6073607 87
4.1350956 2.6292675 2.8278887 61
4.5230579 2.2059538 1.5445058 86
4.2566137 2.8369396 1.8544921 68
4.4131117 2.3349259 1.7153624 81
4.2965994 2.3572204 1.6323442 76
4.2922597 2.2116282 0.28172851 39
4.2100883 2.2139657 0.2949073 30
4.673542 2.1735489 1.6984404 85
4.1649332 2.1706972 0.24467494 34
4.57687 2.1501369 1.5622628 89
4.2985315 2.3593526 1.6847234 90
4.0799055 2.2354827 2.9246254 87
4.1324 2.1770897 2.9091797 75
4.128859 2.1641555 2.7100701 72
4.1483517 2.1568346 2.6591797 72
4.0682917 2.1550639 2.9023438 71
4.6223779 1.2214354 1.3051757 95
4.8447928 0.87241369 1.0854491 134
4.1223803 2.2106593 1.9248514 77
4.8311596 0.70427716 0.96312678 90
4.4464045 0.98811841 0.95849597 103
4.1246409 1.4420078 0.53320301 110
4.4018011 0.96787024 0.95996082 113
4.2290387 1.1438369 0.8510741 55
4.2885246 0.94823271 0.88273537 94
4.6006207 0.018784294 0.047851443 28
4.7353506 -0.70962006 1.1916503 132
4.5864763 -0.56159478 1.1064452 156
5.2400136 -2.0942934 0.63085926 109
4.2754469 -0.16808815 1.2712401 152
5.1784601 -2.1538806 0.62695301 110
5.1976132 -2.1301332 0.053710818 31
4.1106367 -0.00078436243 0.72021472 6
3.556325 1.1485119 0.075612307 24
4.2866306 -0.58157158 1.1023306 125
3.4205461 1.1882422 0.05523596 27
3.4545588 1.2027297 0.079101443 35
4.187058 -0.50353116 0.82080066 119
4.3041673 -0.75741428 0.69933921 101
4.3245702 -0.88106656 0.49038294 102
3.3599942 1.1308935 0.066406131 35
4.1387544 -0.65862155 0.58496082 134
4.7941833 -2.2788355 0.04344881 25
4.6970229 -2.2962706 0.064320661 36
4.7437077 -2.3658779 0.071099199 28
4.6346865 -2.351567 0.070478372 30
4.5217128 -2.369199 0.073049694 30
4.4751124 -2.1456127 0.38476551 58
4.4494338 -2.3697979 0.071003698 20
4.4544306 -2.3178411 0.64746082 78
4.4299326 -2.2518187 0.50195301 71
4.4462438 -2.2945316 0.35839832 62
4.4354024 -2.3493998 0.75830066 61
4.280273 -2.0524926 0.87391818 34
4.435215 -2.4454615 0.047803394 24
4.2982497 -2.4453588 0.065429568 29
4.2164168 -2.4583898 0.068359256 28
3.7532053 -3.0518219 1.218994 4
4.1208396 -2.4022386 0.02565519 27
3.7639301 -3.4774861 1.335205 3
3.642879 -3.2372065 1.2546386 4
3.4102964 -0.42416441 0.067382693 37
3.6340036 -3.170934 1.2114257 3
3.6700044 -3.4672704 1.1857909 3
3.7483158 -3.9660802 1.4638671 4
3.602932 -3.3042612 1.2006835 2
3.367208 -0.41704109 0.074218631 36
3.7304626 -4.1929579 1.6173095 3
3.7330821 -4.2397423 1.3164979 4
3.8129435 -4.5862184 1.776184 2
3.7480741 -4.4388013 1.2717284 3
3.8698223 -5.2103877 1.9497069 1
3.7763884 -4.7430739 1.7739257 3
4.147922 -3.4552081 0.29680482 68
4.2305641 -3.8294327 0.073242068 27
3.6244445 -4.1594954 1.6190795 2
3.6299632 -4.3820915 1.500122 3
3.6231036 -4.3196936 1.2810057 4
4.2014589 -3.8416193 0.073242068 29
3.5856237 -4.2968535 1.4490966 3
3.5952494 -4.4099951 1.2194823 3
4.1572371 -3.6743939 0.3158673 106
4.1516223 -3.9010189 0.063476443 28
3.6932635 -5.0413184 1.7697142 1
3.4801683 -4.2985425 1.5048827 1
3.4668245 -4.1971807 1.455078 3
3.5159948 -4.4620523 1.2729491 2
3.397321 -4.3701911 1.4472655 2
3.7787042 -3.1803365 1.4038085 3
3.7583542 -2.9667969 1.1620531 3
3.7827351 -3.1880853 0.81347644 3
3.7830772 -3.2468419 0.0028716754 18
3.7514265 -3.18468 1.2568358 4
4.1600337 -2.47492 1.2116698 4
3.7266784 -3.1030347 1.1665038 4
3.7045856 -3.0228922 0.99522948 3
3.7264144 -3.2085211 1.10791 4
3.7263517 -3.2046154 0.9604491 4
3.5564568 -2.5978837 0.078124881 30
4.0963068 -5.0817437 0.9213866 3
3.699311 -3.3456917 0.94531238 2
3.858578 -3.9728839 0.062708259 14
3.4998236 -2.5987906 0.081054568 28
3.61763 -3.124315 1.1181639 2
4.1181364 -5.3470531 0.70996082 3
3.4198806 -2.6078846 0.083007693 31
3.7276609 -3.8960893 1.5205077 2
3.5800114 -3.2147729 0.079101443 28
3.6142468 -3.5228579 1.23291 2
3.5215504 -3.2235229 0.080078006 27
3.6948864 -4.0450711 1.1904296 2
3.7266819 -4.2008319 1.0136718 3
3.394681 -2.6200087 0.081054568 31
3.8289776 -4.8555274 1.8310546 2
3.6827803 -4.1429338 1.6736697 2
3.7018578 -4.2363901 1.5058593 3
3.4964132 -3.2395525 0.078124881 29
3.3714967 -2.6360071 0.079101443 34
3.7566586 -4.8527794 1.8311766 2
3.6856582 -4.3225985 1.5023192 3
3.60568 -4.0855675 1.0263671 3
3.4065809 -3.2409914 0.082031131 28
3.6695838 -4.4166179 1.6665553 2
3.6270852 -4.2024274 1.1794432 3
3.732147 -4.9078665 1.8306884 2
3.672524 -4.6001878 1.6617125 2
3.5882022 -4.3358793 1.3359374 4
3.5926085 -4.367063 1.1669921 3
3.59798 -4.2146134 1.0146483 2
3.6757774 -4.803287 1.6563262 2
3.3793035 -3.2453351 0.082031131 29
3.7108886 -5.1660523 1.828369 1
3.5240076 -4.3525348 1.5021971 2
3.587049 -4.5077949 1.1562499 3
3.4200451 -3.9596179 0.083984256 31
3.6203952 -4.882309 1.8310546 1
3.5774589 -4.6407781 1.1455077 3
3.531667 -4.5868173 1.1503905 2
3.504827 -4.6185012 1.4906005 2
3.4490476 -4.3068542 1.3391112 2
3.509171 -4.6457787 1.145996 2
3.3576784 -3.9684305 0.083984256 29
3.8311815 -3.1638689 1.453247 4
3.5018463 -4.7982593 0.086913943 30
3.7476103 -2.9464293 1.1801757 4
3.4666946 -4.7988224 0.087890506 30
3.8186865 -3.3594065 1.2922362 4
3.7279458 -3.1275408 1.1502993 3
3.4358866 -4.826663 0.083984256 30
3.363255 -4.8043861 0.089843631 31
3.7267272 -3.22805 1.1552733 4
3.4892571 -5.8415637 0.12011707 31
3.6808593 -3.2912927 1.1508788 2
3.4478712 -5.8187861 0.12597644 31
3.6115837 -3.1126916 1.1679686 2
3.4151731 -5.8505635 0.12109363 31
3.5698228 -3.0664797 1.3176268 2
3.6223984 -3.3000426 1.1513671 4
3.3761153 -5.8511891 0.12109363 31
3.9441075 -5.0919952 1.889038 1
3.718008 -4.025167 1.2458495 3
3.8773479 -4.9485149 1.8895262 1
3.7186828 -4.18924 1.5630492 4
3.6685472 -4.1080012 1.2404784 3
3.8486178 -4.9841356 1.8895262 1
3.6663442 -4.0924091 1.5671996 3
3.6579695 -4.0573826 1.0825194 2
3.6735029 -4.2954459 1.3930663 4
3.6692843 -4.2759795 1.2285155 4
3.6628003 -4.2370157 1.0659178 3
3.7847359 -5.0203199 1.8894042 1
3.6412292 -4.4756732 1.5527953 3
3.6041136 -4.2729635 1.2588887 2
3.7401817 -5.1655831 1.8889159 1
3.5449262 -4.317039 1.5593871 2
3.5139928 -4.3370681 1.5588988 3
3.5288517 -4.4110584 1.3879393 3
3.5138052 -4.3253508 1.2268065 2
3.4743099 -4.2986364 1.5606078 1
4.4187078 6.3381033 0.15079331 37
4.3731761 6.181869 0.10092308 31
6.3539033 6.4538298 0.033702858 34
4.4358063 6.1459088 0.081681721 39
4.4430995 6.05617 0.081478499 38
4.4487424 5.9468732 0.080286533 42
5.5213008 5.3713198 1.5073231 89
5.4231043 5.3763003 1.3045199 90
5.8085966 5.3830929 1.1289675 111
4.9340625 5.3807902 1.9024503 166
4.8431315 5.364501 1.7210466 127
5.0502958 5.3706036 1.5695583 124
4.9881005 5.3668914 1.4750879 95
4.8725333 5.3638134 1.3681337 89
5.7537088 5.3608227 1.1452513 122
5.0544853 5.3503861 1.9477279 129
5.0677271 5.3477926 1.9140267 120
4.6316857 5.3336978 1.7416619 137
4.781898 5.3437514 1.6375589 106
4.7525096 5.3797746 1.4415051 99
4.6628938 5.3630743 1.4311376 95
4.6092839 5.3687692 1.3252814 106
4.443871 5.7651253 0.083976358 37
4.6805286 5.3089142 1.9539293 136
4.6031361 5.3288078 1.9028662 143
4.6642981 5.3382111 1.6395341 108
4.2758827 5.2913947 1.709968 118
4.4425545 5.6029744 0.083753027 39
5.1785598 5.3850269 1.9450759 125
5.0823369 5.3644581 1.7611657 124
5.8339562 5.3731847 1.5233091 124
5.4722743 5.3807969 1.4736105 87
5.3255558 5.373313 1.3664914 94
5.2651844 5.362412 1.1481082 175
5.0695057 5.3724189 1.1492941 184
4.9653554 5.362577 0.98546308 254
5.2358117 5.3762674 2.0319285 173
5.105876 5.3628249 1.9309748 114
5.1084852 5.3903871 1.6073021 144
4.9663868 5.382998 1.558462 99
5.169322 5.3693686 1.3083725 92
5.2263565 5.384109 1.1304532 240
4.8148732 5.363977 1.1337976 170
4.8153186 5.3675666 1.0738666 176
5.6639628 5.3756356 0.79179502 152
5.0625491 5.3791003 0.82087588 185
5.8050385 5.3135405 2.1512103 39
5.0073481 5.3435254 2.0556924 128
4.9295464 5.3469744 1.9496245 132
4.8114347 5.3334427 1.7642802 127
4.8708782 5.3534031 1.6298314 118
4.7172456 5.3418946 1.5326208 107
4.6858783 5.3387475 1.5139314 103
5.1773553 5.3373599 1.1763408 102
4.6607289 5.3636255 1.1312865 126
4.5988402 5.3669672 1.0848622 160
4.7576523 5.3951011 0.96616513 194
4.9492993 5.3765736 0.82184601 189
4.6920791 5.3668942 0.74128383 105
5.0503464 5.3168316 2.1151967 69
4.7629037 5.3466539 2.0745804 118
4.591907 5.3068843 1.9172561 147
4.5308137 5.3566465 1.3693705 131
5.2954984 5.2929468 1.175456 104
4.5146132 5.3374958 0.98723048 160
4.5159073 5.3100014 0.89457923 149
4.7278981 5.2837672 2.1584523 57
4.4513826 5.307025 2.0787437 129
4.3997002 5.2906704 1.1497151 233
4.2903824 5.3171644 0.98793286 125
4.4837713 5.2883716 2.1400955 75
5.1167555 5.3331132 1.2682598 108
5.2676263 5.2216773 2.373384 18
4.2878113 5.2776937 1.5820698 124
4.1920371 5.3078704 1.3298407 121
4.9977522 5.2294841 2.3727462 23
4.1724916 5.2047515 1.0107862 94
4.2966318 5.2739539 0.82616073 108
4.683639 5.2033892 2.2721248 53
5.1486487 5.3683176 1.8892075 113
5.5545678 5.3815627 1.6363177 117
5.7814775 5.3912201 1.5112588 112
5.6236091 5.3815598 1.3794128 91
5.2942643 5.372787 1.3067198 88
5.5782003 5.3773093 1.1295284 127
5.1149421 5.3557725 1.9468546 119
5.0171347 5.3750458 1.883258 150
4.8751616 5.3620577 1.6377366 104
5.0379539 5.3725295 1.4467285 91
5.5411096 5.3642707 1.1861992 104
4.9466596 5.345336 1.9147016 134
4.7750216 5.3324823 1.5273672 96
4.9030461 5.3487678 1.5187383 91
4.7171297 5.3461328 1.3674098 91
5.5259147 5.2977762 1.1743808 107
4.8046036 5.3435559 1.9512773 131
4.5251436 5.3256578 1.5311607 114
4.9985003 5.3569989 1.271729 103
5.9027653 6.0756993 0.011522563 16
6.0030251 5.7619596 0.03433755 27
5.9945054 5.7526336 0.032966748 24
6.0294604 5.621027 0.047283106 20
5.8119388 5.3710909 1.9369614 119
5.2701387 5.3620405 1.9075783 118
5.7987885 5.3790011 1.7632186 122
5.816102 5.374054 1.7325027 123
5.5852132 5.3887634 1.6164485 107
5.7595053 5.3840055 1.5561756 112
5.9272852 5.3466692 2.0591807 100
5.8175354 5.3593526 2.0603249 83
5.2942801 5.3641343 1.943203 119
5.183382 5.3927402 1.7678084 122
5.1904912 5.387785 1.7374049 163
5.2613783 5.3821573 1.7317001 141
5.1636562 5.3859701 1.6373618 117
5.6071167 5.3380694 2.0634656 99
5.2359843 5.3591642 1.9458652 111
5.1531339 5.3528161 1.7993735 118
5.0061841 5.3549776 1.7641249 137
5.1598082 5.3573775 1.7163286 136
5.0507336 5.3499827 1.6146094 128
5.5016975 5.335238 2.0650375 96
4.9453773 5.3496552 1.7393763 134
5.2904329 5.3451939 2.0676954 109
4.957902 5.3472128 1.7996739 133
4.8636656 5.3596544 1.7645311 132
4.8204308 5.3461533 1.7403977 138
5.0800071 5.3239107 2.070348 109
4.881321 5.3498664 1.897014 132
4.6993876 5.3427601 1.7412651 144
5.9854007 5.5218716 0.018381795 20
4.9741688 5.3366981 2.0719223 114
4.8659239 5.3175335 1.9488578 143
4.7090688 5.3092613 1.9166107 140
4.7543297 5.3572526 1.7662138 139
4.8730736 5.3183522 2.0734334 109
4.6492424 5.3393164 1.7678809 142
4.5772686 5.3080764 1.742353 132
4.6989231 5.3333712 2.0568159 163
4.6199327 5.3106384 1.9506246 132
4.6579041 5.3282032 2.0761495 125
4.5536342 5.3054428 1.9556117 130
4.5548568 5.309804 2.0776894 129
5.9926958 5.4762139 0.0080944002 23
5.2521477 5.3665104 1.0954847 254
5.9454784 5.3771567 1.6351179 118
5.8137832 5.3753958 1.5156798 126
5.7779236 5.4140587 1.3649549 93
5.6721215 5.4143591 1.3002149 89
5.681375 5.3974385 1.107287 136
5.2194681 5.3812418 1.0991629 252
5.857337 5.3454695 1.9418515 116
5.246397 5.3711228 1.7995045 115
5.6361971 5.3923974 1.7261322 128
5.5112567 5.3889823 1.7279068 138
5.8108244 5.3579669 1.5890113 127
5.5840626 5.3661819 1.5253518 94
5.5517397 5.3936853 1.3656622 94
5.4384842 5.3913116 1.3661948 89
5.3511539 5.3895545 1.3189728 91
5.7524252 5.302525 1.1733154 89
5.2282853 5.3842235 0.77578348 114
5.9862227 5.3563814 0.0082877111 26
5.343534 5.3409019 1.9414604 130
5.4062586 5.3533068 1.6278143 109
5.3064823 5.3745036 1.5575739 102
5.2045593 5.3625574 1.5201166 91
5.0857162 5.3696942 1.4748157 90
5.2080679 5.3864803 1.3671479 93
5.0990448 5.3685646 1.3674346 88
5.152564 5.3686423 1.3242322 92
5.1848869 5.3501697 1.9131373 109
5.1748524 5.3549867 1.6439176 119
5.0983725 5.3479948 1.6301266 138
5.0288053 5.3394141 1.5235758 92
5.0451679 5.346035 1.5110513 89
4.9857883 5.3661871 1.367601 93
4.9203119 5.3313217 1.3131653 93
4.9280815 5.3703527 0.91139275 253
5.5986328 5.3081751 2.1527991 48
4.9038644 5.3359995 1.5253503 86
4.9241023 5.3435779 1.5119399 92
4.8468184 5.3485765 1.3834845 90
4.7122478 5.3376541 0.9066785 153
5.551249 5.3065977 2.1545746 40
5.3487353 5.3011699 2.1543536 43
4.8835177 5.3405795 1.7379607 143
4.9732251 5.3492436 1.637272 124
4.806942 5.3412032 1.5128293 95
4.7680111 5.3469148 1.3691034 91
4.7345018 5.35148 1.3188542 95
4.6301489 5.3242879 0.98657888 208
5.8928185 5.3390875 0.015800806 25
4.6842823 5.3409491 1.6377959 113
4.6500835 5.3290715 1.529325 108
4.6726499 5.3429794 1.518872 101
4.646677 5.327816 1.3687266 91
4.8294997 5.3429604 1.915591 138
4.5667644 5.3363318 1.5146831 102
5.9007316 5.2219977 0.0096956287 16
5.49509 5.275949 2.1035416 51
4.5890665 5.322587 1.6376566 121
6.2913203 5.2421308 2.8583119 66
4.8528452 5.2872682 2.1574306 63
4.5402508 5.3212924 1.7696081 134
6.3096237 5.120625 2.8108671 61
4.6048999 5.2803178 2.1589694 61
4.8317919 5.3196054 1.2713876 105
4.7971277 5.2272396 2.2306838 46
4.5738916 5.3071666 2.1183252 81
4.6690316 5.2162948 2.2323184 50
4.5400028 5.2789435 2.1684616 42
4.4115691 5.2667184 2.1321537 49
4.3660774 5.2578726 1.904225 139
4.3375711 5.2136016 1.1118456 252
6.3688192 5.1057734 2.8462751 11
4.4892173 5.201468 2.2318134 51
6.3362551 5.0798459 2.808866 56
5.7025352 5.1227055 2.4956214 17
5.4263954 5.1972837 2.4125185 18
5.2403793 5.1449227 2.4093058 17
5.1509504 5.1920576 2.4041569 17
4.236793 5.2387414 2.1621904 102
4.9561687 5.1489506 2.451107 24
5.1884403 5.3600545 1.8997756 114
4.7895098 5.1346917 2.3833206 32
5.8010883 5.3583851 1.8907257 131
5.8405628 5.3497653 1.7753031 123
5.7654123 5.3574944 1.720548 120
5.4630208 5.3627911 1.5264022 93
5.4862742 5.0626073 2.9313006 52
5.4930072 5.095665 2.7180104 19
4.6924849 5.1226916 2.3216767 51
5.3871818 5.3543415 1.7305589 144
5.2621679 5.3575387 1.6366692 126
5.5697489 5.109097 3.0179121 56
5.2688498 5.0876679 2.5757363 16
5.152988 5.3590951 1.9073712 113
5.2578096 5.3429618 1.7220089 127
5.0941172 5.1169438 2.5937808 17
4.5707812 5.1514773 2.3220067 52
5.0703249 5.3531551 1.738477 160
4.3560286 5.1909847 1.1144556 132
5.6532307 4.9866815 2.9860234 72
4.9603348 5.0982423 2.5978177 18
4.17169 5.1751385 2.176847 74
4.2169147 5.1916609 1.1468852 139
4.7717915 5.1092725 2.5532222 15
4.478744 5.1331663 2.3475928 58
4.1851621 5.1913013 2.0759556 126
4.4071674 5.1275764 2.3257201 55
4.6165404 5.0905514 2.5254881 14
5.7256765 5.0380101 2.9669421 50
4.5602612 5.1167631 2.5178373 13
5.6046057 5.0354533 2.9668231 50
5.2034492 4.9963417 2.8367269 26
4.5001316 5.054759 2.5112536 14
5.0375509 4.9846525 2.8793776 35
4.4518948 5.0943785 2.3590474 46
4.8946776 5.0347824 2.7480915 21
4.2443733 5.1099138 2.262521 50
4.793674 5.0347428 2.7900918 24
4.3959475 5.2764959 2.0584257 142
4.3767729 5.272563 1.952824 130
4.376874 5.2682996 1.8039232 132
4.6391993 4.9826493 2.7638812 10
4.5548811 4.9844055 2.7189624 15
4.5074964 4.9967122 2.7015727 9
4.4222755 4.9675074 2.7081368 12
4.318222 4.9821539 2.7109656 13
4.3012638 5.0223045 2.6322885 26
4.1335664 5.008152 2.4707155 54
4.1389637 4.9609647 1.3707631 154
4.5178041 4.9322448 1.2734944 111
4.6647367 4.8819137 1.2348514 115
4.8177395 4.8170319 1.1939296 76
4.1955118 4.9595699 1.1234052 85
5.810154 4.3332472 0.023403272 27
6.3747954 4.0258255 2.8895652 35
5.7772455 4.1892624 0.041465327 17
6.3554101 4.0147767 2.886812 27
6.3568721 3.9268892 2.892529 34
6.3605242 3.9428189 2.8925159 57
5.7294645 4.1707888 3.0543933 42
3.9581749 4.5832167 1.7644215 25
4.0408249 4.5039091 1.7318814 68
5.7300558 4.0904083 0.010758528 16
5.6905689 4.1262259 0.037665151 20
5.7679114 4.0796046 0.0053553656 13
4.2847228 4.5292926 2.3358207 104
4.0440559 4.5660973 1.9612911 31
3.9283755 4.5764952 1.7054991 53
4.1367159 4.4381118 0.76215655 30
4.3606706 4.3053551 2.5149412 63
4.2678456 4.3998485 2.3788891 52
4.405901 4.1613955 2.7344923 45
4.2798181 4.2750902 2.3960888 79
4.3656573 4.2228293 2.4880474 73
4.2236447 4.2447386 1.0346771 46
4.4161229 4.0997376 2.7444782 41
5.3985095 3.5993593 3.0353599 47
5.4375634 3.5900526 3.0596342 49
4.5949068 3.9343834 2.7629638 103
4.2130327 4.1369891 2.3400083 57
4.4705496 3.9591777 2.7456176 20
4.354495 4.0538459 2.5514712 79
4.4443855 3.9637907 2.5536373 62
4.2274971 4.0202103 2.3543124 77
4.3921499 3.996738 2.7324617 79
4.3158951 3.9549353 2.5450771 57
4.1676459 4.0429573 2.3528762 30
4.341722 3.991751 2.7617452 45
4.2554002 3.9211714 2.7327061 48
4.2427993 3.8822582 2.5265644 59
4.3067636 3.918524 2.54811 38
4.1615849 3.9527981 2.5106738 36
4.6215868 3.2011023 1.0677819 114
4.770709 3.0469458 1.0826794 113
4.4481664 3.1406012 1.0671446 116
4.6864595 2.9523411 1.0965581 110
4.3788309 3.163034 1.0468646 113
4.282918 3.1769371 1.0557835 113
4.3484559 3.1251676 0.78374666 113
4.2864518 3.0992565 0.79311383 107
4.8068218 2.5670862 0.044391505 29
4.2026739 3.0986161 0.8144533 106
4.7165489 2.5756228 0.069561444 20
4.6870022 2.5127814 0.052406177 28
4.578424 2.2086756 1.6164738 78
4.6345263 2.506057 0.068543032 32
4.567235 2.2230229 1.693323 54
4.4903264 2.1621742 1.7193058 82
4.4403801 2.1758425 1.5371542 93
4.2829142 2.5958502 2.9766071 84
4.2054453 2.6380405 3.0065968 63
4.3077312 2.491261 1.7630123 117
4.5052762 2.2992215 1.6748755 83
4.545558 2.2503023 1.5210305 82
4.4671173 2.3211884 1.6050466 96
4.2905273 2.467546 1.7628434 100
4.3723369 2.3909562 1.6153058 135
4.3601284 2.2032509 1.5853888 92
4.2800832 2.1937149 0.068675943 26
4.2491918 2.7924521 1.8613274 63
4.2844777 2.2673151 0.0090969624 29
4.123858 2.2918925 0.62703836 63
4.1259761 2.2949018 3.0158138 70
4.1373415 2.2081237 3.0370598 66
4.0675387 2.2173827 1.1198436 66
4.1405487 2.2174344 3.1046236 57
4.4882007 2.1572976 1.6940651 81
4.1455688 2.1319864 1.1247609 33
4.0399289 2.1644523 1.2317135 39
3.9709904 2.0026851 0.097312018 28
4.744761 0.73014522 0.97284293 108
4.3738132 1.2039737 1.3049259 102
3.8852167 1.9627769 0.098008692 26
3.8201399 1.8405766 0.10022493 27
3.736136 1.842876 0.10662694 27
4.1473451 1.1935427 2.4089851 101
3.6772966 1.857371 0.1129166 27
3.7115374 1.8332611 0.099697165 17
3.6018715 1.7695674 0.08563488 26
3.4926629 1.8070103 0.1129165 30
3.4843526 1.6827424 0.10041817 24
3.4026022 1.7508734 0.10506172 34
4.2843084 -0.093721882 1.3390448 148
5.1622224 -2.1491897 0.66592395 107
5.1198559 -2.1889296 0.66335672 99
4.5453691 -0.86256158 1.0128068 131
4.3234768 -0.35939372 0.52548373 5
4.2277822 -0.23377296 1.3502845 167
5.0879951 -2.2822204 0.057061125 30
3.3370509 1.6873425 0.089993969 34
4.4499631 -0.84908617 0.54963082 119
4.2574902 -0.48226357 0.96250498 147
4.688993 -1.7572896 0.065693274 27
4.2362576 -0.68479133 0.56885189 121
4.6597304 -1.7577623 0.068912871 30
4.1830626 -0.48830169 0.75742251 146
4.1251249 -0.64257872 0.94844753 130
4.1140132 -0.61526072 0.85679621 132
4.1495705 -0.67826986 0.66961342 68
4.6118879 -2.4304888 0.069383584 27
4.4244127 -3.8767309 1.0936015 41
4.5201654 -2.4319651 0.07615152 28
4.9278293 -1.8217181 1.1970749 85
4.451448 -2.2891028 0.27034515 67
4.4474564 -2.4652967 0.14027742 55
4.2922301 -1.8574129 0.080228209 28
4.4752092 -2.4612253 0.81536174 62
4.4431453 -2.3716648 0.6810382 84
4.4389925 -2.3326201 0.37388983 65
4.3951244 -2.3329463 0.24677873 34
4.2869945 -2.0553563 0.75565803 35
4.4946079 -2.5272257 0.068844765 60
3.4940486 0.17695822 0.091116697 28
4.314621 -2.0140796 0.45894581 29
4.2921352 -2.1558855 0.24023925 28
4.4202642 -2.4944448 0.03707841 20
4.2544975 -2.0074832 0.41515335 32
4.129982 -1.9452342 0.052515067 25
4.1352715 -2.0768602 0.41126543 36
3.4355974 0.17015718 0.095593408 32
4.3209901 -5.5580621 0.95447463 5
4.0412169 -2.056092 0.43142891 34
3.4242496 0.14263956 0.088829637 32
3.8861427 -3.795512 1.11713 3
3.3658631 0.12998419 0.090367332 33
3.8387527 -3.8900206 1.1106262 4
3.8946764 -4.1318712 1.4357848 3
3.8513031 -3.999378 1.2150838 3
3.8101988 -3.9763222 1.0468158 4
3.8433466 -4.2225409 1.4321337 4
3.7938037 -4.054708 1.040028 3
4.5592389 -4.2421408 1.2963307 109
3.7688351 -4.0983558 1.2098985 3
4.072031 -2.6205366 0.042583711 23
3.8008642 -4.3674717 1.2480085 4
3.8296778 -1.9620765 0.10225816 21
3.777842 -4.4191985 1.6013899 2
3.7399788 -4.232008 1.433634 4
3.7504995 -4.176775 1.2043506 4
4.1471949 -3.0179794 0.11882944 18
3.7746754 -4.5911374 1.5957993 3
3.7923954 -4.3756118 1.3660066 4
3.7162764 -4.2214026 1.2068505 3
3.7099445 -4.2827044 1.080569 4
3.6917167 -4.3689332 1.0732996 4
3.7750201 -4.9814825 1.3948382 3
3.6136165 -4.1282773 1.2685274 4
3.6182942 -4.1630793 1.0928842 4
3.6953616 -4.7561846 1.4079208 2
3.6076989 -4.4952779 1.0646715 4
3.6571584 -4.9446058 1.5856466 1
3.6553059 -4.9443336 1.3990105 2
3.5661626 -4.4607863 1.0685524 3
3.6245461 -4.9760776 1.3978046 3
3.4830332 -4.3878989 1.0768083 2
3.645093 -5.5464053 1.5654788 3
3.5999727 -5.2811723 1.3827105 3
3.5020757 -2.0302427 0.09953846 31
3.4222085 -2.0432415 0.10128886 31
3.9334145 -4.1857529 1.3153206 4
3.916883 -4.111516 1.1466391 4
3.8171353 -3.6750779 0.85284048 3
3.8670659 -4.045908 1.1535772 4
3.8233738 -3.8510222 1.0014553 3
3.8798232 -4.2569251 1.3120865 4
3.4985995 -2.6709983 0.094732352 29
3.7925148 -4.023664 1.1572795 4
3.8160024 -4.1401949 0.97376174 3
3.6922836 -3.5520859 0.87134969 3
3.7474327 -4.141573 1.1487656 4
3.7797163 -4.1564946 1.03123 4
3.4421031 -2.6797166 0.096257031 29
3.7308772 -4.063436 0.98399639 4
3.7248962 -4.2005286 1.1449968 4
3.4906952 -3.3977821 0.095704451 31
3.7564714 -4.5133944 1.6584285 2
3.6964748 -4.2436695 0.96698445 4
3.6283145 -4.2564793 0.96764231 2
3.4595757 -3.4060931 0.096001223 29
3.7389402 -5.0137167 1.6447042 2
3.6307621 -4.4445109 1.3057399 2
3.6311235 -4.455936 1.1265113 4
3.6102018 -4.3505173 0.95938379 3
3.7254062 -5.1467571 1.641318 3
3.4810691 -4.2613297 0.096494243 30
3.7268887 -5.3655009 1.6350636 2
3.4967384 -4.0948057 1.1586466 2
3.6944299 -5.4128995 1.6343095 2
3.6279659 -5.0308142 1.4575083 2
3.6852896 -5.5771217 1.6297356 2
3.6103799 -5.1561022 1.4520068 2
3.6073041 -5.5861821 1.6305881 1
3.5647473 -5.3596554 1.2496381 2
3.5643322 -5.5865502 1.4331585 2
3.8855653 -3.8963549 1.0406455 2
3.9095335 -4.1039152 1.2058082 3
3.8559923 -4.1789913 1.2013471 3
3.8408332 -4.613421 1.5335226 3
3.7700047 -4.2894602 1.0194131 3
3.7286229 -4.4196024 1.3648664 3
3.7374527 -4.4738612 1.1825615 4
3.6502304 -4.3893194 1.1908752 3
3.6699452 -4.3997717 0.99740493 2
3.7838283 -5.0909262 1.5158132 2
3.6547542 -4.5327501 0.98517758 3
3.7978354 -5.3644724 1.6995345 2
3.6324887 -4.4947834 1.0043646 3
3.6862001 -4.9674807 1.5224557 3
3.7004275 -5.2566452 1.7032069 2
3.6877789 -5.1940322 1.5133201 3
3.7417004 -5.520678 1.1048175 2
3.6977711 -5.4598312 1.6986492 2
3.6888885 -5.6396775 1.6948586 1
3.5944197 -5.0939569 1.5187874 2
3.6565225 -5.6945643 1.4941009 2
3.5917222 -5.5471544 1.5009408 2
6.3274703 6.4675565 -0.01074132 18
6.291153 6.339179 -0.025864663 28
6.3265772 6.2465115 -0.011883367 25
4.503264 6.1762667 -0.012493934 30
6.3065276 6.1695566 -0.0028110314 26
