# .PCD v0.7 - Point Cloud Data file format
VERSION 0.7
FIELDS x y z intensity
SIZE 4 4 4 4
TYPE F F F F
COUNT 1 1 1 1
WIDTH 1425
HEIGHT 1
VIEWPOINT 0 0 0 1 0 0 0
POINTS 1425
DATA ascii
3.8037846 3.0902324 2.0511639 44
3.7318447 3.102531 1.3539048 31
3.8020771 3.0253034 2.0498774 73
3.7608244 2.978725 1.3574598 49
4.6722884 4.7191529 0.044336744 47
4.3113542 4.2811608 0.052955754 40
3.8126159 3.0327859 1.885219 25
3.8149776 3.0126843 1.7509341 26
4.7339606 4.6674399 0.040366903 50
3.7584023 2.8892369 1.9204766 25
3.7982068 2.9017072 1.282463 67
4.7514648 4.5776896 0.058159497 26
4.2857361 4.2206445 0.055446848 25
4.7606792 4.6269817 0.031901121 26
4.3917284 4.1998258 0.063122749 53
3.7737145 2.8259406 1.289421 71
4.4200759 4.1174912 0.071249507 51
4.8258224 4.5294318 0.042571194 47
3.7760959 2.7262912 1.2921635 77
3.7448015 2.6413937 1.9258387 26
4.8704705 4.4834857 0.024263296 25
4.4935164 4.0850291 0.058873355 52
3.792665 2.6654649 1.2902788 73
3.7351282 2.6415563 1.4345931 37
4.8948627 4.4424806 0.040822253 49
4.4990702 4.0537648 0.064022958 50
4.9529333 4.4220023 0.031648263 48
4.556838 4.0059867 0.058155872 54
3.7348878 2.6220374 1.4375993 36
4.975369 4.3358474 0.039992683 46
3.7266712 2.5505557 1.9915898 42
3.7724752 2.4942365 1.3783102 74
4.5874953 3.9664674 0.05684831 49
5.458014 4.7345309 0.056474105 24
3.5709293 2.8688521 2.4338121 27
3.8012605 3.0930953 1.7775449 42
3.8091841 3.0666852 1.5523195 37
5.5084457 4.7965922 -0.002693763 35
5.0102334 4.3274484 0.033262916 53
4.6201324 3.9269319 0.056462348 55
3.499244 2.7850132 2.1859856 32
3.534796 2.7244878 2.6679046 29
3.7517176 2.4105902 1.3832541 74
4.6680565 3.8676171 0.053958431 51
3.5908322 2.7825513 2.4248574 17
3.8066447 3.0130563 1.8113744 30
3.8850582 2.9902425 3.0482066 29
3.5502348 2.7125311 2.6675024 35
3.5986986 2.7798357 2.1731081 52
3.8746104 2.9551415 3.0421336 31
3.5818031 2.708262 2.6912098 26
3.6725411 2.7867832 2.4430954 12
3.6868744 2.7981253 2.1723883 45
3.7316918 2.3738103 1.3875242 37
3.8224514 2.9618487 1.2755671 64
3.7435534 2.9255278 0.85273647 80
4.6912351 3.8555226 0.05053813 52
3.8860214 2.9354329 3.0411007 46
3.7088828 2.7884951 2.7052383 14
3.7247829 2.9172585 1.4262695 55
3.8864028 3.0267797 1.2209823 72
3.8310647 3.0339217 0.76543629 64
4.740809 3.7650018 0.053292871 51
4.0248704 3.031487 3.0652144 44
3.7579353 2.7877951 2.7120554 28
3.7123902 2.2588868 1.3925455 105
3.8258402 2.9285903 1.2760941 61
3.9128566 2.9037662 3.0388179 38
3.830296 2.8003697 2.458673 16
3.7910712 2.8389535 2.1788673 27
3.7216907 2.8765786 1.4340255 48
3.8191578 2.8888917 0.74121964 73
3.8860495 2.8297458 3.0268893 38
3.9074736 2.8013206 2.7386968 16
3.7177646 2.2294979 1.3917905 106
3.8004081 2.8485246 1.2463424 65
3.8785441 2.73982 3.0146315 40
3.8530641 2.7325931 2.6441467 10
3.8392632 2.7552862 2.4552026 7
3.7361331 2.7215834 1.4230489 36
3.7666631 2.1644492 1.9330114 254
3.8054557 2.7988267 1.2767675 59
3.6866782 2.0817204 1.4277965 51
3.8612504 2.650023 3.0016708 35
3.8669815 2.6513095 2.7036479 14
3.8736484 2.6459787 2.3761451 78
3.7536759 2.0826197 1.9348339 254
3.8640225 2.7432942 0.51571655 80
3.9718723 2.7207823 3.4275036 30
3.783139 2.5715055 2.1892934 31
3.7192168 2.5648046 1.2269337 82
3.8831301 2.7888408 0.63475806 49
3.975337 2.6972408 3.4238148 39
3.8702688 2.5719428 3.0151689 38
3.8466475 2.6183524 2.6941934 13
3.7320683 2.000793 1.9026713 254
3.7065778 2.0128646 1.3955184 105
3.822499 2.7079415 1.2838017 74
3.9569433 2.658308 3.4150858 37
3.7504418 2.0006342 1.9360589 254
3.7813954 2.5640883 1.295305 82
3.7389328 2.560626 1.2372261 59
3.9494104 2.5722489 3.3998458 33
6.0026531 4.3267035 2.9628525 14
3.7444758 2.4841933 2.1831975 37
3.9255304 2.64604 0.70582598 115
3.9678867 2.6150999 3.409497 33
3.871012 2.5131483 3.0022609 45
3.8568921 2.5015216 2.7126343 17
3.8043487 3.1711631 1.7727962 25
3.7477636 2.4843507 1.2490119 77
3.8007276 3.0526795 1.4115196 49
3.7168248 1.9228392 1.3938884 110
3.778193 2.4821067 1.2978727 82
3.9380012 2.490139 3.3836846 37
3.8637543 2.4466162 2.9867504 36
6.0205259 4.2286525 2.9538984 10
4.4560289 3.0359044 2.412853 74
3.7529895 2.4098186 2.1803312 34
3.8222225 3.0554662 1.2811495 56
3.8453405 2.5657349 0.64194399 41
3.8603876 2.5796247 0.54069519 52
3.7222521 2.4594092 1.2611846 34
3.8555431 2.4999418 0.69295079 75
3.8516412 2.4311085 2.7010279 17
3.8025417 3.0156798 1.4712155 52
3.7818439 2.4664211 1.297598 88
3.9305508 2.4079981 3.3693666 39
3.8753357 2.4700937 2.3815901 81
3.7712944 2.3352923 2.1784544 36
3.8101571 3.0166583 1.9340248 29
3.7346389 1.8404531 1.8718035 85
3.7467511 1.8438964 1.8033688 91
3.7005801 2.3204703 1.2503352 20
3.9245703 2.5718617 0.71164757 92
3.8613086 2.3290701 2.9600663 36
3.8277009 2.3683167 2.6468408 14
3.8617125 2.3966973 2.3229077 71
3.7382061 1.8426132 1.9385028 254
3.6935976 2.3310661 1.2928507 35
3.7117543 2.3370941 0.63597345 95
3.7935593 2.3977909 2.356108 10
3.8046489 2.9046807 1.926617 36
3.8022227 2.907618 1.8360367 35
3.711519 1.7626128 1.3603985 254
3.7009697 2.3572903 0.69966877 52
3.9356103 2.3648605 3.3629656 41
3.8343573 2.3418446 2.8829384 33
3.7659638 2.2513671 2.1749742 42
3.696445 2.2451243 1.3060341 35
3.6851232 2.2430968 1.2418383 85
4.0941663 2.6345997 0.71443462 136
3.9260645 2.5366931 0.71424323 74
3.9443159 2.5080528 0.45215496 78
3.8540783 2.2625508 2.9455323 35
3.8363285 2.2433553 2.6697884 17
3.7717733 2.2853627 2.3974345 10
3.725255 2.3994877 0.96125078 50
3.8696322 2.4508195 0.88895732 109
4.0351334 2.5653987 0.73558956 137
4.0537663 2.5831237 0.62393337 138
3.9725769 2.524581 0.54591042 20
3.9212034 2.3297911 3.3550496 44
3.8749423 2.2864082 2.3878245 82
3.8880241 2.4011827 1.0159923 91
3.9445524 2.4759417 0.90101147 80
5.5350647 3.6399198 0.010165596 52
5.0701208 3.3225856 0.039235979 55
3.904377 2.2712507 3.3426316 40
3.6876979 2.1632833 1.3219202 46
3.9159169 2.3803682 1.1102557 80
4.0512366 2.5285668 0.63157785 164
3.7606702 2.1693954 2.1717303 46
3.7325544 1.6800618 1.8094209 72
4.0353966 2.468493 0.86420447 92
4.4699106 2.8216596 0.4976379 117
3.8946173 2.1695714 3.3257105 38
3.8539145 2.1606526 2.9224818 32
3.8271732 2.1729984 2.6582909 17
3.7271478 1.6987271 1.5684463 70
3.7207081 2.1688972 1.3919379 109
3.7267234 2.3134565 0.61901265 117
3.7633326 2.0951157 2.1692469 169
3.7396567 1.686326 1.9401273 69
3.7571797 2.3103247 1.2767359 29
3.961961 2.475636 0.89376158 84
4.0779696 2.4716468 0.84462279 94
3.6905439 2.0812378 1.3324033 49
4.0878406 2.4418693 0.94141495 110
3.7295454 2.169045 0.7994799 80
3.8452542 2.1215653 2.912504 34
3.7236588 1.6390878 1.7691356 65
3.918731 2.0948949 3.3182206 40
3.8378832 2.1180401 2.6504242 14
4.1926594 2.4342618 1.0545307 86
4.1964693 2.4439621 0.91367406 102
3.93224 2.280108 0.90744114 67
3.7793465 2.1202397 0.66631693 121
3.7833903 2.0068898 2.1681099 48
4.1947913 2.4483304 0.98502362 86
3.8431933 2.0197215 2.8914604 30
3.8292365 2.0750818 2.6429408 16
3.7212148 2.0770831 1.392743 112
3.6935177 2.0109 1.3403994 54
4.2331219 2.4028106 0.98313797 82
3.729393 1.5302258 1.9420286 74
3.7270062 1.5240211 1.8454 99
4.2749343 2.4356709 0.93531972 91
3.7907209 2.0414238 0.58343059 105
3.9034996 2.0167599 3.3030908 38
3.7400019 1.5314937 1.8115469 90
4.2589674 2.376533 1.0168422 90
3.7351196 2.0347507 0.97024518 57
3.7608759 2.0496778 0.69105875 71
3.8209398 2.03406 2.5927541 16
3.7020695 1.9228926 1.3483264 59
3.8366499 1.9884443 2.8832719 28
3.8091085 1.9325614 2.5761003 24
3.7889595 1.9275289 2.3743761 41
3.7447925 1.9215355 2.1634707 117
4.2804747 2.3924494 1.003251 90
3.9077899 1.930583 3.2914279 37
3.7243137 1.4633367 1.9450036 34
3.7571645 1.8412466 2.1624877 254
3.6932633 1.8449397 1.3590717 61
4.3798618 2.40973 0.99021685 80
3.8293908 1.8520861 2.9038744 34
3.8074515 1.8485165 2.5639238 25
3.7876151 1.8493986 2.3702919 45
3.8069375 1.8995023 2.3552616 42
3.7214863 1.8485341 1.3933111 113
3.7600214 2.3937654 1.3356072 32
3.7297134 1.890492 1.3441229 74
4.4118891 2.3361225 1.0100852 146
3.9128766 1.8874593 3.2860029 38
3.7381375 1.3636689 1.8460156 129
3.7723801 1.7617116 2.3636413 37
3.7119825 1.7958026 1.3575822 79
4.3890333 2.240797 1.0168301 95
3.8886817 1.8525181 3.2773831 39
3.8337634 1.7659492 2.8951399 35
3.7973659 1.8349733 2.5603991 23
3.7401996 1.7614174 2.1600013 105
3.7210317 1.8203616 1.349463 69
3.7464416 1.872092 0.57291389 59
3.8949785 1.7702188 3.2656116 39
3.8049669 1.8211837 2.5602458 23
3.7471147 1.288442 1.9631523 21
3.7514853 1.6858377 2.3575709 43
3.766284 1.6809168 2.1606476 254
3.680233 1.6967773 1.3567499 55
3.8286772 1.6994944 2.8873837 34
3.8159251 1.7125716 2.599741 35
3.8993511 1.6879611 3.2548714 40
3.7331557 2.0944638 1.3901997 109
3.839483 1.6445827 2.8829334 31
3.7962966 1.607132 2.5794239 26
3.7580197 1.6075931 2.356231 66
3.8025031 1.6246667 2.5829744 25
3.8886836 1.641118 3.2470081 40
3.7376573 1.6694221 0.62362218 61
3.8218746 1.6064324 2.8130038 52
3.7565975 1.5216584 2.3541303 71
3.7560899 1.1205716 1.9429848 55
3.7586827 1.1654658 1.8401445 35
3.8127649 2.1147757 1.5429091 49
3.8644609 1.6061635 3.2374125 41
3.8226566 1.5360065 2.8071792 33
3.8065422 1.5228753 2.5688088 28
4.4274259 1.9595366 1.1776172 89
3.8799682 1.5942464 3.2390904 43
3.8867323 1.5354471 3.2318749 44
3.8589232 1.1245689 1.8559008 42
3.9534869 1.1365337 1.8104568 50
4.6246305 2.0502071 1.1192362 80
3.8175011 1.4617453 2.800596 43
3.7981818 1.4955778 2.5629795 28
3.7827632 1.4411697 2.3581936 71
3.879838 1.1214185 2.0316362 48
3.8787618 1.1212182 1.9962529 42
3.91909 1.1675825 1.6915804 58
3.8389137 1.1426811 1.5735569 68
4.286921 1.3690414 1.494349 53
3.7130697 1.5266991 0.16702649 78
3.8900046 1.500176 3.2273722 44
3.9031777 1.1977158 1.5503995 43
4.3511744 1.3929806 1.3965762 65
3.7751062 1.9786421 1.401404 55
4.711349 2.0114551 1.0978184 111
3.8119273 1.4954166 2.5655355 28
3.9480011 1.1300793 2.0195003 48
3.9597178 1.1236672 1.9579935 52
4.0371523 1.1293559 1.8019687 48
4.00073 1.1775551 1.6076427 57
3.965353 1.1854458 1.5325878 53
4.2243552 1.3466339 1.504934 35
3.7025974 1.5068481 0.21785408 18
3.8693841 1.4456229 3.2169616 43
3.7736559 1.3631716 2.3562469 71
3.9013026 1.1191406 2.0317295 51
3.9425168 1.1177101 1.9600226 39
3.9515984 1.1213884 1.8847318 50
4.1032319 1.2182126 1.7104828 40
4.0745964 1.2037029 1.5993134 48
4.0742483 1.20122 1.5067155 51
3.8366406 1.4341249 2.8004804 44
3.8193796 1.3634725 2.6334524 30
4.0051003 1.1242318 1.8431528 48
4.101131 1.1906033 1.754154 49
4.1028552 1.1839046 1.6210496 58
4.0632272 1.1913986 1.4704674 57
4.6887841 1.929791 1.1038505 128
3.7356434 1.4600062 0.17022002 63
3.8580842 1.363565 3.2047052 41
3.7960408 1.3676515 2.590373 44
3.9963627 1.1174097 2.000073 44
4.0143108 1.1189222 1.9562379 56
4.1214752 1.1962843 1.4554788 58
4.2652316 1.2372131 1.3351377 60
3.8841767 1.3945737 3.2133241 42
4.0342531 1.1229887 2.031817 50
4.115109 1.1215239 1.9922395 47
4.0139623 1.1184654 1.8805314 51
4.1885295 1.1755438 1.7438567 64
4.1669483 1.1809106 1.6094694 58
4.1193786 1.1873364 1.5841947 121
4.2580481 1.2074189 1.3779856 58
3.7148075 1.4388536 0.87229353 93
3.7208264 1.412225 0.79195684 86
3.691309 1.4019799 0.68955517 91
4.0556808 1.1187568 2.0316775 50
4.0904274 1.117754 1.9535635 54
4.0948038 1.0514542 1.8745557 76
4.2717509 1.1410198 1.7345443 111
4.1829839 1.1511455 1.573305 63
4.266633 1.170835 1.4862591 57
3.6422033 1.2885135 1.2966287 42
3.6955419 1.4030703 0.75654233 97
3.8157852 1.2927785 2.8463206 39
3.811923 1.2812982 2.6182554 30
3.7684994 1.2851176 2.3561606 62
4.0913067 1.1253147 1.9142909 43
4.2548223 1.1480203 1.5594139 61
3.883462 1.3554401 3.2080088 41
4.1885724 1.1186996 2.0317893 54
4.1837263 1.1181922 1.9366791 49
4.1473255 1.1200509 1.8309131 44
4.2762613 1.1679435 1.676351 128
4.343195 1.1370363 1.5791991 51
4.3509827 1.1458654 1.4448761 58
3.7829914 1.281106 0.90766019 39
3.7160995 1.3393054 0.83974582 86
3.7159665 1.3226767 0.78212923 77
3.7141206 1.291503 0.67626655 73
3.8711996 1.3281913 3.2028582 43
3.7924438 1.2893543 2.6162255 30
4.3553152 1.1299276 1.7246922 80
4.3011255 1.1382489 1.6735029 73
3.665966 1.2813764 1.2464705 120
3.7744136 1.3557987 0.99013954 38
3.7462552 1.2824016 0.84063667 109
3.7311261 1.2950859 0.77907807 81
3.8668027 1.2959504 3.1221571 48
3.7769856 1.2009974 2.3587024 62
4.2413507 1.119853 2.0316434 58
4.2752028 1.1171293 1.9893498 53
4.2525811 1.1203547 1.8217262 50
3.8440633 1.3409429 0.97095662 40
3.8163908 1.2145209 2.8385632 43
3.7950318 1.218821 2.6049793 29
4.3344088 1.1166492 2.0003471 46
4.3331919 1.1246853 1.7711319 46
4.4195809 1.1308599 1.716817 44
3.6783402 1.2059574 1.2422955 106
3.8556108 1.2266107 3.1870766 44
4.3500986 1.1196289 1.9445573 53
4.3343964 1.1171207 1.8146766 51
4.4152369 1.1588569 1.5024728 43
4.5509357 1.2200832 1.2989057 68
3.7707348 1.2085052 0.77159154 56
3.7061193 1.2682481 0.68168968 63
4.4145432 1.1174979 2.0005858 48
4.4334111 1.1166725 1.9867399 51
4.3936267 1.1276393 1.7647891 48
4.3600731 1.1137662 1.7339557 48
4.433516 1.14394 1.6541789 59
4.4141436 1.1493249 1.5281817 53
4.7284727 1.310328 1.3788745 53
3.7981012 1.250257 0.82389206 39
3.7886069 1.2001748 0.71633941 46
4.4880037 1.1364594 1.8436649 51
4.4584303 1.1388006 1.8339258 49
4.497736 1.1448655 1.6448013 58
4.6512303 1.2117605 1.4586842 50
5.0646629 1.4135723 1.3238117 58
3.6674273 1.1328826 1.2433044 84
3.9183269 1.3411217 0.99870396 22
3.8332698 1.2440457 0.88508344 35
3.9199767 1.2023768 3.1953626 48
3.8351974 1.167347 2.8367145 44
3.7886195 1.1914744 2.5992057 46
3.7660806 1.1298718 2.3587277 18
4.4972997 1.1159792 2.031698 58
4.5884447 1.1745267 1.8989795 50
4.4462118 1.1268096 1.7592864 58
4.6395335 1.1289201 1.6243975 58
4.6391926 1.1280723 1.4846973 52
4.357286 1.0482759 1.3881716 132
3.6944699 1.129807 1.314716 136
3.7310636 1.2054396 1.0762038 90
3.7134995 1.2029157 1.0497268 69
3.7696095 1.129427 2.2604728 26
4.6465011 1.1306067 1.9177732 44
4.654211 1.1592855 1.8353065 44
4.627831 1.1255989 1.6912903 47
4.6121659 1.1242599 1.4331473 63
4.2517233 1.0216894 1.4039593 119
3.7857285 1.1383286 1.1195933 39
3.6793718 1.1330523 1.0874583 95
4.553967 1.1151233 2.0319338 57
4.7537589 1.1655502 1.8282137 54
4.7111712 1.12849 1.7314349 51
3.6717582 1.1338558 1.0129075 89
3.8253708 1.2182236 0.8354491 40
3.8594794 1.2157645 0.79700196 40
3.7609179 1.1424274 0.67988718 61
4.0024343 1.2014146 3.209666 53
3.9176002 1.1702375 2.8470595 61
3.8728809 1.1826839 2.6126702 36
4.626317 1.1179342 2.0319164 57
4.728085 1.1721172 1.8804957 51
3.6853974 1.1203179 0.85536045 254
3.7470801 1.1326499 0.73409754 63
3.8710537 1.1604164 2.354867 74
4.8216295 1.1648116 1.8756161 45
4.812252 1.1646404 1.8242419 54
4.676095 1.0767293 1.7126287 69
4.635427 1.0482073 1.4996471 72
4.0244603 1.2069674 1.4787118 52
4.3536415 0.96135616 1.3753821 56
3.7120485 1.1120003 1.4001515 60
3.7371731 1.1261621 1.2320855 51
3.7202423 1.1512117 1.1508949 43
3.6999798 1.0867968 1.0812737 69
3.6804814 1.0741229 1.009007 62
3.6861815 1.0590687 0.92980134 88
3.8376677 1.1968913 0.74099177 36
3.8310027 1.1798782 0.70522302 41
4.035758 1.1971207 3.2156258 45
3.9948485 1.1584125 2.8002226 47
3.9451318 1.160337 2.6227529 38
4.741559 1.1142364 2.0318522 59
4.8980913 1.1672106 1.8180752 54
3.8618639 1.1321197 1.8201683 52
4.6616449 1.0424099 1.6206018 60
4.6656651 1.0806766 1.4344636 58
4.3378248 0.96283531 1.344632 112
3.6877828 1.1023679 1.3145823 79
3.8377483 1.121727 1.1299261 87
3.7735624 1.1169696 1.1434706 69
3.6705761 1.0463309 0.85695404 80
3.6742423 1.0403404 0.76333296 87
4.1043854 1.1923976 3.2264607 184
4.9114509 1.1692839 1.8709053 43
4.9993877 1.1597753 1.8111287 62
4.3510118 0.94216681 1.3554057 107
4.1588769 1.2845283 1.2123253 56
4.0361652 1.2028508 1.1214696 69
3.6687555 1.0417376 0.65061468 65
4.8138499 1.113143 2.0318587 59
4.9586949 1.1238503 1.9051423 46
4.0265493 1.1930127 1.4979321 51
4.5489168 0.96019316 1.3712405 61
4.1685357 1.2785187 1.2114177 64
3.8338106 1.1267247 1.0950495 45
4.2719946 1.2295909 3.2613046 254
4.106658 1.160974 2.8147225 48
4.0280452 1.138999 2.399034 42
4.8959379 1.113853 2.0318007 57
5.0695782 1.1586828 1.8063135 63
4.755372 1.0353971 1.705294 50
4.0040116 1.178164 1.7155536 55
4.6731915 1.0042076 1.6389025 61
4.6698742 1.0037069 1.4991112 47
5.2572508 1.2383847 1.2443624 67
3.8703403 1.1153316 1.0776172 44
3.862391 1.0550656 1.0386581 87
3.6756978 1.0382619 0.97093427 72
4.9098253 1.1055031 1.9784219 60
4.0291548 1.1208797 1.9936357 47
5.0167031 1.161798 1.8655486 46
5.2188821 1.2308245 1.7716873 113
4.5429664 0.964674 1.3584788 48
4.2746129 1.2560372 1.2440288 89
4.0469971 1.1917005 1.1710653 91
3.795454 1.0735083 0.959939 40
3.686743 1.0316625 0.92933083 93
3.6796618 1.0090127 0.76364601 82
3.6977358 1.029532 0.64507866 59
4.3347883 1.2105336 3.2034705 70
4.1579423 1.1629443 2.8038356 63
4.1090698 1.1414156 2.3711307 32
4.9981656 1.1155424 1.9220641 50
5.0902781 1.162497 1.8425453 52
5.3027096 1.2061028 1.7668324 66
3.9855108 1.1158276 1.8085124 36
4.7805319 1.0766125 1.7249166 49
4.5398836 0.93415833 1.4199018 58
4.2963815 1.3035665 1.3682581 61
4.6304131 1.0039859 1.312045 114
4.5894384 1.415884 1.2374182 90
4.2892375 1.3056645 1.1803701 89
3.8667345 1.0565786 0.93130052 37
3.7751672 1.0532069 0.80338097 52
4.3996654 1.2137275 3.2163098 69
4.2511973 1.1895399 2.8872466 46
4.1775656 1.1664886 2.601048 43
4.0895867 1.1194201 2.1215749 53
4.0709777 1.1223531 2.0187354 48
5.0231447 1.1076827 1.9764291 62
5.2079873 1.1666546 1.85543 39
4.4995413 0.89400434 1.723756 42
4.5202379 0.93932629 1.6595237 48
4.5481486 0.92863607 1.5475799 43
4.2043157 1.2049246 1.4762375 57
5.3301783 1.2036943 1.2138175 69
4.3148952 1.2011323 1.129104 71
4.1885681 1.1658859 1.145113 75
4.0322161 1.1340132 1.0887809 75
3.8535028 1.0629873 0.87682098 57
3.753396 1.0154533 0.74102306 68
4.4210172 1.2161222 3.2866061 252
4.356833 1.1764827 2.8981297 43
4.2751446 1.1619358 2.609268 47
4.1775141 1.1701455 2.3231628 50
4.5045404 0.89410686 1.7697699 41
4.4668722 0.89136457 1.6661208 24
4.4463272 0.89411783 1.5392424 22
4.3168154 1.2011104 1.4502442 53
4.618072 0.95348978 1.3795545 64
3.8395371 1.025178 0.75692797 56
3.8602288 1.0329967 0.7080524 61
4.332109 1.1552925 2.6222286 44
4.2635407 1.1592889 2.3307471 40
4.1537981 1.1186333 2.1240315 54
5.0895128 1.1047187 1.9754046 67
5.2547169 1.1600723 1.8530691 56
4.5958652 0.87472963 1.7950262 53
4.8373251 1.0364394 1.6847206 47
4.5009089 0.86930466 1.6308722 36
4.8136921 0.96493292 1.4101192 49
4.2617154 1.1917362 1.3779626 53
5.2745166 1.1383762 1.2280232 62
4.1007957 1.1058202 1.0795085 70
3.9510934 1.0924044 1.0376861 65
3.9537439 1.0724912 0.88917923 48
3.9492953 1.0751967 0.81276733 68
4.4994879 1.211298 3.3000968 56
4.1986432 1.1306844 2.1000516 54
5.1793714 1.1053028 1.9738902 61
5.3957953 1.1580186 1.866377 32
4.1543946 1.1201859 1.8706334 58
4.9859052 1.0381031 1.6857517 72
4.8353686 0.95739651 1.5312334 66
4.8228965 0.96404457 1.4693692 45
5.3215065 1.1551065 1.2069032 39
4.161438 1.1260891 1.0357199 82
3.6631584 0.88165045 0.93626857 155
3.8936503 1.043416 0.78221923 69
3.7550609 0.9708662 0.69896978 80
4.3960409 1.1759968 2.9028957 44
4.3598485 1.1335154 2.3235142 53
4.2176652 1.1172051 2.1439276 50
5.2848535 1.1056495 1.9721458 65
5.4727268 1.1254506 1.8419938 40
4.2693701 1.1144919 1.8627725 131
5.054318 0.99968147 1.6411833 54
4.8945661 0.95631361 1.5307025 55
4.8146238 0.93390322 1.4704061 26
4.8368144 0.95185041 1.4052215 56
4.3598723 1.1845016 1.3962691 40
4.3172841 1.1979866 1.1909596 74
4.4367571 1.2068315 1.0848193 74
4.0664115 1.0718393 1.0135317 58
3.6674106 0.88204813 1.0118568 172
3.6591423 0.89687681 0.86058486 131
3.6433895 0.89650583 0.78289974 120
4.5544777 1.2106647 3.3102829 52
4.4980478 1.1786442 2.9156237 51
4.2553844 1.1317897 2.1017394 51
4.3547368 1.122045 2.0318468 55
5.3668375 1.1024446 1.9706479 67
4.626071 0.86399794 1.8064643 61
5.1321254 0.99453974 1.6318238 53
4.9796195 0.97033501 1.5878274 66
4.8419552 0.94028521 1.4650947 65
4.8674922 0.92594051 1.3979925 54
5.2693143 1.0581737 1.2074771 71
4.5175066 1.2233291 1.2780616 48
4.1291175 1.044271 1.029271 81
3.6716337 0.88049221 1.0874568 120
4.6527448 1.2134471 3.3289764 52
4.4029007 1.1504178 2.6391556 57
4.3257232 1.1268296 2.103781 58
4.3549156 1.1216855 1.9734659 51
5.4197121 1.1071191 1.9074607 57
4.2961035 1.1201968 1.9036953 44
4.7324944 0.8368125 1.780775 55
5.3009171 1.0855041 1.639668 46
4.9818349 0.95990849 1.531091 76
4.5100942 1.2511568 1.1389995 52
4.4482765 1.2007732 1.0810835 73
3.6604166 0.8059783 1.0129873 207
3.6600831 0.80747271 0.93678075 190
3.6461892 0.80919361 0.86440486 160
3.6346195 0.81470442 0.79118145 127
4.5431118 1.1780734 2.9202263 56
4.4676142 1.1523466 2.567853 70
4.4049077 1.1309109 2.3285093 55
4.4020514 1.1295958 2.1060851 58
5.4053578 1.1075921 1.9494184 56
4.3839731 1.1246977 1.8990439 41
5.4731364 1.0963049 1.6288645 50
5.0047951 0.95511293 1.5772661 80
4.956573 0.93038893 1.4798299 68
4.9242544 0.91612053 1.3899032 70
5.328495 1.1065392 1.2690649 67
4.5645599 1.2599545 1.1251719 96
4.4783993 1.1397204 1.0741614 57
3.6801813 0.80611753 1.0846856 81
3.6410396 0.86337328 0.7858938 122
4.747201 1.2059517 3.2821786 109
4.6774187 1.1716738 2.8879116 50
4.4832697 1.1258721 2.3373904 46
5.4800978 1.100719 1.968679 69
4.4194055 1.1246076 1.9719769 51
5.4860101 1.1021953 1.9051062 55
4.8840537 0.81998682 1.8389018 150
5.5631227 1.1183701 1.6209494 54
5.1001887 0.91867828 1.5316801 76
4.5767341 1.2119064 1.447896 48
5.8517818 1.2246699 1.126569 70
4.11937 1.0253105 1.0509602 71
3.634788 0.82306242 0.86809289 165
4.7283344 1.1671524 2.8944058 51
4.5596485 1.1511607 2.5756032 59
4.4547338 1.1209946 2.107707 58
4.4598107 1.1223149 2.0166812 59
5.6090412 1.1026597 1.9664569 70
5.5796652 1.0988045 1.9019108 63
4.3670325 1.111649 1.7658856 65
5.7936583 1.1447344 1.6200633 52
5.2351823 0.91925097 1.5272732 91
4.4424405 1.1451912 1.5611743 54
5.0006866 0.90956068 1.4648012 73
5.0459466 0.9104948 1.4101716 80
4.5919847 1.1396241 1.3398798 67
5.9101062 1.2198281 1.1183988 57
4.6013694 1.2073359 1.1429178 114
3.8005803 0.88307381 1.0937804 60
4.8237357 1.2193007 3.3612161 52
4.6693473 1.1536479 2.5842955 55
4.5617652 1.1286473 2.3467124 52
4.4957705 1.1184273 2.1089163 46
4.5121222 1.1190958 1.9389006 49
4.8460579 0.80615759 1.8939457 35
4.4757929 1.1143374 1.7495998 50
5.8520408 1.1360393 1.6158684 63
5.657474 1.0998836 1.5104827 74
4.6442103 1.1204295 1.5251346 92
5.1549187 0.92144632 1.448969 68
5.1363263 0.91662121 1.3427943 77
5.9644647 1.2111344 1.1101477 56
4.2610216 1.0425682 1.2874193 187
4.5764151 1.1939716 1.1651448 80
4.3887005 1.0807443 1.1104411 66
3.8211079 0.84264898 1.0802505 51
3.6888394 0.72347099 0.91553015 22
3.629554 0.73524284 0.86874777 166
3.6297138 0.73282623 0.79789335 126
4.9100151 1.2104836 3.3764946 51
4.7762337 1.1755786 2.8865736 62
4.5974226 1.1149526 2.1117072 52
4.8473058 0.80634642 1.946543 52
4.5993681 1.1121893 1.9839168 54
4.5321751 1.1406941 1.6870341 51
5.7933469 1.1130514 1.4709444 45
6.012238 1.1634779 1.0897467 75
4.271554 0.97304201 1.2839994 127
4.2581687 0.99245834 1.2007276 156
4.2458453 0.96008301 1.1146853 65
3.6790135 0.73190022 1.0836746 127
3.6592638 0.73176432 1.0124643 164
3.6463504 0.73225641 0.82796317 149
4.6949282 1.1555247 2.5999584 73
4.6422124 1.131393 2.3559752 51
4.8625526 0.78266239 1.9462659 47
4.8497734 0.7943778 1.8937776 38
5.056179 0.85981607 1.7732351 55
4.8851771 1.2743235 1.7545139 62
4.5895705 0.67882299 1.6864305 22
5.8485408 1.1047573 1.492403 59
5.1969876 0.92040682 1.4882038 93
5.2225471 0.90913725 1.3056405 89
6.1090422 1.1287661 1.0747656 83
4.9729233 1.2136693 3.3883615 54
4.8904014 1.1933117 2.9630139 49
4.8184333 1.1508794 2.6470947 51
4.7598519 1.1296949 2.3695054 49
4.6384296 1.1104326 2.1129279 56
4.6677399 1.1131001 1.9825653 54
4.7941532 0.7204237 1.740136 62
5.9398999 1.0810013 1.4897542 49
5.2512989 0.91171503 1.4791514 83
5.3150797 0.90986919 1.308905 61
5.0437503 1.2206736 3.4019077 55
4.996285 1.1920099 2.9766631 52
4.927804 0.75626087 1.9486235 63
4.7215862 1.123796 1.9483811 54
4.9421163 0.76912689 1.893505 53
5.0806794 0.85770941 1.8088962 71
4.7528892 0.65544844 1.691651 55
4.6380444 1.0443792 1.5302471 71
5.2400265 0.89950752 1.3713571 80
5.4095588 0.94435883 1.1392776 91
4.2474947 0.96714973 1.1795809 81
3.815527 0.72822809 1.1406083 94
5.0908217 1.2162223 3.4104137 56
4.8850813 1.1539292 2.6529953 66
4.835124 1.1372204 2.3659708 41
4.7048993 1.1108823 2.1182458 63
5.7332487 0.96421957 1.9570669 73
4.7423987 1.1136084 1.9309521 48
5.7774248 0.96209288 1.843689 84
5.1847682 0.8074007 1.8393811 39
4.7030716 1.0567565 1.7101076 69
5.6384254 1.0130553 1.5047225 69
5.3619485 0.89392471 1.3991902 67
5.3512869 0.89230919 1.3559734 58
6.029182 1.1046448 1.1036537 64
4.2781067 0.92328072 1.2807881 40
4.2757082 0.93361902 1.2394603 52
4.2768211 0.95575523 1.1575383 113
3.6509302 0.71776247 0.93805403 177
3.6242754 0.64546871 0.86892658 89
3.6380935 0.67879725 0.79021418 55
5.1971893 1.2146611 3.370415 58
5.0274644 1.1798944 2.9798574 43
4.9869509 1.1759076 2.6508117 63
4.8559895 1.1322155 2.3807342 53
4.778933 1.1156826 2.1197305 60
5.7112103 0.95813465 1.9942826 80
4.8263531 1.1142726 1.9280288 48
5.4224739 0.86958027 1.6855863 56
5.7000036 0.89115763 1.4640349 75
5.4581981 0.9030571 1.401535 73
5.401803 0.88955641 1.3468032 68
4.3482275 0.95606613 1.3854556 130
4.3503103 0.91125679 1.0900935 51
3.6362174 0.6447506 0.9408676 91
3.6879137 0.69436455 0.83631271 5
5.3190293 1.237062 3.4545212 49
5.0902352 1.1830153 2.9868433 49
5.0775194 1.1943722 2.6656029 58
4.8796825 1.1186528 2.1377871 76
5.4730248 0.84391642 1.6106663 58
5.5575271 0.88710928 1.4076924 74
5.5457792 0.89509583 1.3210624 63
4.4860001 0.96023846 1.1185813 73
5.2186661 1.1887121 2.9645908 52
5.1401253 1.1857767 2.6727509 49
4.9383888 1.1329842 2.3909259 54
5.7628736 0.94209909 1.9648834 61
5.7926693 0.93938303 1.8426758 59
3.8910723 1.1164713 1.8890427 51
5.7870665 0.92135906 1.7006311 71
5.6510439 0.95153189 1.6295613 54
5.7393289 0.90034914 1.4673059 71
4.6744061 0.98328352 1.5392494 51
5.5603771 0.89074945 1.3709465 75
5.5951419 0.89208937 1.356692 65
5.8782663 0.96676159 1.1514521 65
5.4605732 1.2432604 3.4817221 53
5.0050092 1.1300659 2.3981979 53
4.9955859 1.1183538 2.097259 46
4.9701881 1.112731 2.031992 60
5.8109059 0.93660593 1.9545901 72
5.8607912 0.93761158 1.9151838 59
5.7824183 0.88881826 1.6051956 59
4.6721644 0.58324099 1.6318873 53
5.5940409 0.87944555 1.3792597 69
5.6505108 0.89449453 1.2480099 79
5.8982544 0.96232748 1.1345741 59
4.5440297 0.96985292 1.1707906 80
3.8191648 0.71253967 1.1396093 83
3.6485946 0.57030201 0.93553782 194
3.6269672 0.57215738 0.86583894 160
3.6385348 0.62179708 0.76556569 102
5.3031616 1.185636 2.9693236 54
5.2352152 1.1504102 2.6434121 65
5.0228462 1.1192265 2.3218677 48
5.0043283 1.1186342 2.1237381 57
5.0561576 1.1114292 2.0320716 63
5.1434898 1.145813 1.8012686 63
5.8731494 0.89302683 1.7191539 58
4.9168324 1.0725079 1.7105972 52
5.6978445 0.8770566 1.3989961 45
4.5219021 0.95515919 1.4715376 52
5.7839808 0.90038681 1.2641913 70
4.5408888 0.95494413 1.3593297 55
4.5677929 0.89067054 1.2372451 107
4.5318823 0.95077944 1.1666431 66
5.5273314 1.2424846 3.4935336 51
5.3619132 1.1810164 2.9765828 47
5.2983103 1.1564527 2.6480429 81
5.1212692 1.1355772 2.3982069 43
5.9377694 0.9062171 1.9325458 47
5.888803 0.8963418 1.8616958 46
5.2369285 1.1345925 1.7948877 61
4.9713111 1.0677423 1.7050745 52
4.9873199 0.63701582 1.6837626 114
4.6503057 0.92084599 1.6472487 64
5.8035784 0.87948322 1.4676769 72
5.7834263 0.8775878 1.3840752 64
4.4977245 0.90379333 1.475348 54
5.8763313 0.89183617 1.2627054 61
4.1825118 1.1980886 1.4032799 60
5.2036715 1.1300769 1.122021 94
4.7699852 1.0171313 1.1216822 99
4.4882603 0.8828826 1.0896722 68
3.6457112 0.57289219 0.76797587 114
5.6219382 1.2412534 3.4551678 58
5.1751671 1.1329756 2.336828 68
5.1481323 1.1182537 2.1021187 47
5.1225848 1.1104236 2.0320113 63
4.5866318 0.91164541 1.8416022 68
5.9081459 0.88470602 1.717002 25
4.5275106 0.93652391 1.7210166 51
5.9265103 0.87857914 1.6025822 56
5.8870578 0.89211798 1.4452734 52
5.8078651 0.87973404 1.4195275 81
5.8698416 0.8784399 1.252849 56
5.1667056 1.1346269 1.2752261 47
4.8394275 0.99974155 1.0951251 114
4.4617171 0.80421066 1.0944912 67
5.4218245 1.1799989 2.9714587 44
5.376287 1.1680431 2.6480989 62
5.306756 1.1302376 2.3238177 58
5.1646891 1.1162367 2.1286454 48
5.2241855 1.1088862 2.0321059 62
5.2284384 1.1100545 1.9139936 55
4.4950256 0.87838888 1.7086024 30
4.7194872 0.52203083 1.6031646 72
4.5202537 0.87433672 1.5594853 65
5.9076366 0.87163639 1.4181373 20
4.9089637 0.96732092 1.0824699 91
4.4391432 0.81817579 1.1020848 66
3.8058715 0.60629368 1.1415904 84
3.6480286 0.56818008 0.83113712 149
5.712326 1.2422147 3.4732065 59
5.4582996 1.1539869 2.6407487 56
5.3435693 1.1207328 2.3306866 53
5.2879257 1.1081662 2.0721838 56
4.1366749 1.1184235 1.9139076 46
4.6625638 0.88974571 1.8602669 58
4.6451445 0.90940189 1.756152 46
5.1688457 0.59102678 1.6429063 50
4.7938714 0.95226479 1.6647451 86
4.8392529 0.55900764 1.6081669 72
4.8060527 0.9793725 1.5728931 60
5.1258297 1.0956426 1.2281065 62
5.2143312 1.0459819 1.126536 110
3.6549242 0.48032808 0.9319452 182
3.6450374 0.49205351 0.83252156 147
5.7866087 1.2395182 3.5429494 7
5.5488524 1.1695161 3.0425189 48
5.5034089 1.1603332 2.6410029 64
5.2820759 1.1183858 2.1319029 40
5.3176332 1.1105156 1.8906388 48
4.6688399 0.87306404 1.8631138 67
4.5460448 0.87761688 1.7183038 13
4.8986549 1.0060611 1.6602921 61
4.7208104 0.49411726 1.51841 27
4.8440084 0.99157047 1.3521589 50
3.6216886 0.48335648 0.8655237 163
5.6076097 1.180398 3.0416968 54
5.625195 1.1666865 2.6610467 57
5.4312582 1.1186957 2.3567214 56
5.3914404 1.1069841 2.1352363 49
5.3258152 1.109302 2.0321884 64
5.3338652 1.1103907 1.9104192 56
4.6106915 0.8279171 1.7589101 21
4.9934483 0.95846844 1.609771 80
4.7599387 0.47111654 1.6044562 97
4.7595224 0.42785311 1.4651011 62
4.8991666 0.94343376 1.3221197 81
4.8711538 0.8837347 1.072945 109
3.9412808 0.57525301 1.1307454 80
5.7056565 1.1675587 3.0606067 53
5.5038629 1.1166043 2.3351698 59
5.4735432 1.1038032 2.1376426 46
5.4352531 1.1095982 2.0320337 63
4.3063841 1.1119618 1.8601956 68
4.8007779 0.81331015 1.7922429 46
5.124125 0.50036812 1.6176671 31
5.0838647 0.52508259 1.5664197 75
4.7721705 0.42391109 1.5068194 80
4.9936209 0.91877079 1.3560255 80
5.2676272 1.0541449 1.1722847 82
4.9602232 0.95717049 1.1046703 104
4.4440794 0.74157077 1.1175916 28
5.76862 1.1707716 3.0744255 55
5.6864076 1.1683559 2.68014 63
5.6212907 1.122828 2.3387153 64
5.5250969 1.1062846 2.0320075 64
5.7232599 0.67149782 1.6974975 24
4.7375116 0.83464479 1.7465657 49
5.7432795 0.65979242 1.6634108 7
5.1993637 0.50419569 1.5751911 36
4.3020906 1.1166387 1.6115949 65
5.2900605 0.99712801 1.1675278 74
5.0137434 0.96351957 1.0571971 84
5.8712611 1.1494699 3.0413206 58
5.796402 1.1687541 2.6982877 56
5.6503534 1.1235085 2.3627081 69
5.5987306 1.1038847 2.1414073 47
5.6188598 1.1029148 2.0323503 65
4.3662653 1.1160264 1.8894069 52
5.1146808 0.95640135 1.6006821 75
4.5145569 1.1646428 1.4944464 57
4.5915098 1.1399274 1.3884996 90
5.1394506 0.98151255 1.0715797 74
3.9382069 0.49134398 1.1340176 80
3.6358814 0.40135384 0.78472733 119
5.8663521 1.1349697 2.7231553 40
5.7605515 1.1358423 2.3377066 52
4.7019272 0.73253298 1.7154181 40
5.3428683 1.0041084 1.5628619 43
4.7617197 0.41486979 1.4016006 13
5.0083222 0.94562483 1.3117046 70
5.224988 0.98008108 1.0560784 68
3.6378665 0.40688038 0.85764724 142
5.9574814 1.1580963 3.0456815 52
5.8166242 1.1272845 2.3549693 48
5.6956391 1.1128268 2.1186881 54
5.6651878 1.1098895 2.0098963 56
4.9344707 0.80061579 1.8356991 63
4.5321159 1.1434155 1.8126069 48
5.0826731 0.44696569 1.5665919 75
4.7736554 0.34458208 1.4579821 72
5.2085075 0.9120121 1.0609487 70
6.0067554 1.1617193 3.0414426 59
5.8846631 1.125917 2.7747459 54
5.8002691 1.0825968 2.3537648 43
5.7622566 1.0526056 2.1464942 41
5.7939863 1.0533829 2.032434 46
5.3806276 1.444808 1.7163639 92
5.1142693 0.91165924 1.3964529 72
5.1863403 0.94258165 1.2547702 86
5.1536283 0.91318083 1.0585539 91
4.44876 0.70490611 1.1035974 22
6.1124425 1.1642208 3.0463369 76
5.7669153 1.042192 2.6920826 65
5.8175116 1.0849857 2.1478066 39
5.8219943 1.095932 2.0323191 58
5.4027586 1.4541273 1.7223328 85
4.6260495 0.64482164 1.7058032 34
5.8554378 1.106133 1.5987105 39
5.1607351 0.46329212 1.5547829 50
4.8532977 0.38740206 1.4918375 67
5.2376437 0.89984941 1.4215002 83
4.7681398 0.33563423 1.3961152 17
5.3701949 0.90594959 1.1494846 105
5.7819996 1.0029073 2.6937997 56
5.736238 0.99173641 2.3503628 52
5.4063907 1.373888 1.6946175 89
4.639255 0.7136941 1.6394053 72
5.2882161 0.93330669 1.2678455 52
3.6221769 0.39347458 0.86259663 94
3.6331317 0.33505392 0.79058188 126
5.74228 1.0097389 2.1427784 52
5.7740774 0.9648385 2.0305803 56
5.3083324 0.87240171 1.7979827 61
5.2114916 0.8375392 1.704195 62
5.1027975 0.38980722 1.5327135 66
5.08777 0.36031199 1.510181 74
4.7781515 0.24021626 1.3881605 52
5.3843174 0.92763853 1.2175691 40
5.3831868 0.88761473 1.0301647 71
4.4652534 0.56478882 1.0752395 52
5.3299265 0.88175678 1.7898492 53
5.2565441 0.84310722 1.7175227 77
6.0811405 1.1045327 1.4977241 58
5.374414 0.91092157 1.4779967 73
5.0290704 0.34272003 1.5185969 38
4.7555542 0.28308916 1.3951368 45
5.4191618 0.90785933 1.2572265 71
5.8447313 0.99421072 2.7046423 65
5.7844086 0.96573973 1.8060849 64
5.3237834 0.8678112 1.7340117 79
5.4146028 0.90907955 1.4523393 69
5.3934727 0.87562752 1.1297437 87
5.3555512 0.80937767 0.97314435 68
5.9583311 0.99509192 2.7305214 64
5.8536515 0.96920395 2.3419669 59
5.7875428 0.95249224 2.1287043 58
5.7727666 0.94236565 2.0332174 58
5.3556623 1.2833276 1.7443591 94
5.7928925 0.91372442 1.5513358 56
5.545011 0.91713524 1.4953476 74
5.7128949 0.95015383 1.1935236 70
5.6261663 0.90558147 1.084058 90
5.4447131 0.81450033 1.0320051 96
3.6260598 0.24040699 0.84012854 160
3.6301761 0.25313997 0.79714072 131
6.0175753 0.99177647 2.7345729 65
5.9185672 0.97545147 2.3394899 62
5.7819643 0.92925119 1.8275913 68
5.6023602 0.87960958 1.4796025 72
5.5672131 0.87987852 1.331199 65
4.7500606 0.22585583 1.3817824 57
4.8117485 1.0718293 1.338953 47
5.7937841 0.92322111 1.1892657 30
4.7911015 0.16504574 1.3256043 10
5.2339106 1.2434793 1.1690736 85
4.4561191 0.48873472 1.0708445 44
6.0724106 0.9812355 2.7437124 32
6.0020218 0.97798967 2.357502 62
5.8311028 0.95000124 2.1486437 54
5.8429799 0.93348837 2.0330865 51
5.5714893 0.85086012 1.7791965 54
5.4013758 1.2899914 1.6974533 104
4.7371683 0.98655128 1.6295717 47
5.6557264 0.90909338 1.4126426 79
5.0960054 0.27512217 1.4486305 62
5.7014222 0.90045214 1.2932944 71
5.8089256 0.91510439 1.1771266 40
5.6689506 0.8949461 1.1083714 24
6.071053 0.9714427 2.3441489 58
5.9670763 0.94508505 2.1274571 63
5.9556623 0.92630768 2.005115 43
5.4854422 0.80062389 1.780972 65
5.372541 1.2004666 1.722519 135
4.7271304 0.60968828 1.6248714 53
5.7567039 0.89965105 1.396191 73
5.7558432 0.89764404 1.2840179 76
4.8409181 0.18227911 1.4374303 50
5.3620291 0.72527552 0.97146815 74
6.1193871 0.95387936 2.349602 27
5.9807558 0.94799328 2.054266 56
5.4998989 0.7778244 1.8000171 51
4.613718 0.89753389 1.8397889 57
5.8438873 0.86830139 1.601464 37
5.8066344 0.87679195 1.5812573 30
4.6719108 0.92757368 1.5760741 74
5.818768 0.88888407 1.3860598 29
4.9818487 0.16450262 1.4599136 59
5.8361063 0.89012671 1.3127369 49
4.7439108 0.10648489 1.3624557 73
4.8691492 0.18132544 1.3100182 70
5.3154893 1.244102 1.1507121 91
6.1007075 0.97947788 0.98963863 74
5.230999 0.66038275 1.0774454 80
6.0596647 0.94809008 2.0823498 48
4.5484262 0.88674307 1.8127432 45
4.857688 0.5776906 1.7139857 20
5.8867879 0.87881899 1.579522 54
5.0800118 0.21465349 1.4458044 17
5.8931122 0.89401245 1.3037444 72
5.1010942 1.1127963 1.3130851 54
5.9526505 0.90752411 1.1869293 22
4.8640513 0.1120472 1.3064798 58
5.3283129 1.2308536 1.1508784 39
6.0858145 0.93802261 0.97875351 24
5.1306124 0.66107988 1.0599251 91
4.4506454 0.4008913 1.0639628 43
3.6250079 0.16618967 0.83997399 160
3.6188943 0.17671818 0.72794306 29
4.8130436 1.009376 1.6710135 52
4.511097 0.87509966 1.5929004 59
4.5340881 0.87713766 1.4936581 66
4.8588028 0.091127872 1.4290291 67
4.7902899 0.11865425 1.3226151 30
5.3191309 1.1314011 1.1561154 73
5.3924141 1.1418123 1.7630672 61
5.5619731 0.75533581 1.7961214 40
5.065074 0.63924837 1.6624315 36
4.7480164 0.93375683 1.5676683 69
4.720119 0.49531269 1.5709274 43
5.313292 0.70790005 1.0610056 84
5.4475513 1.1352215 1.7801744 82
5.1633449 0.62229919 1.6894106 57
4.9843073 1.0047016 1.6499399 55
5.113699 0.58305979 1.6298351 68
4.7713723 0.53354025 1.5642015 63
5.0235381 0.098362446 1.449759 62
4.9409757 0.11760712 1.4157505 69
4.3425245 0.36209774 0.079012685 62
5.4825263 1.126864 1.7777537 107
5.0921597 0.56205273 1.5635161 54
4.866323 0.54907942 1.5983025 67
4.7897139 0.011417389 1.370634 55
5.3963223 1.1027775 1.1382973 66
5.1414075 0.58339167 1.0716394 78
4.4439363 0.35312605 1.0603857 39
4.3229475 0.33907795 0.089643352 61
5.692502 0.71022749 1.5658574 65
4.7354259 0.47943068 1.5679348 49
4.9808102 0.10346508 1.4572264 66
4.828012 0.053540707 1.3092541 68
6.0985746 0.81160831 0.99833089 72
4.9421659 0.49074125 1.1188635 83
3.9417653 0.18273783 1.140903 79
3.6376071 0.090621471 0.91126829 184
3.6355753 0.091769695 0.83608383 152
5.5522509 1.0945272 1.7733732 63
5.7082715 0.69990158 1.8333253 14
4.7931643 0.43940687 1.5577941 52
4.8498096 0.021427155 1.4263173 65
4.840086 0.0003194809 1.3599541 30
6.1051955 0.7216897 1.001065 44
4.9330101 0.90040493 1.8717636 57
5.7253146 0.67187881 1.7650616 39
5.5104446 1.1030784 1.5745399 41
4.9725165 0.43555117 1.1144513 86
4.9570932 0.80361748 1.8515705 104
5.7371092 0.6398263 1.6614766 25
5.7283988 1.1455092 1.5827557 60
4.7489047 0.39986181 1.5261579 56
4.8208804 -0.075786591 1.4253983 56
4.8098569 -0.057244301 1.3314617 49
5.3439021 0.96498156 1.1548363 94
5.0408149 0.40944862 1.112205 76
5.6692595 1.0946598 1.7651736 64
4.8902502 0.82106829 1.7343806 40
5.1343517 0.42089272 1.6028149 16
5.0822315 0.42269373 1.4780308 69
4.7598209 0.38406372 1.5072551 28
4.8914499 -0.046182632 1.4150704 65
4.8492222 -0.066494942 1.2957493 73
6.0886726 0.64580727 1.0077024 25
4.4535551 0.24498558 1.0444269 33
4.7958388 0.77425289 1.7750388 26
5.342133 0.96779108 1.6106584 70
3.6266587 0.0028920174 0.9134832 91
3.616858 0.0031957626 0.84047461 91
4.9045157 0.74221134 1.7652789 7
5.3804913 0.90598488 1.6217976 20
4.9641604 0.39467144 1.1162575 83
4.8508534 0.75733709 1.7563034 61
4.8305135 0.25620651 1.4432733 62
4.8236327 -0.1408 1.4204376 56
6.0391817 0.58193493 1.0327306 30
5.0241446 0.32962465 1.1154691 90
5.8111506 1.0538092 1.8249015 68
6.0971203 1.1084247 1.5608923 86
5.2759652 0.87526798 1.4071065 98
4.8761897 0.28596449 1.37175 76
4.8740044 -0.15335894 1.4107398 58
6.0999413 0.61633396 1.0062433 16
4.445261 0.21678877 1.0432594 40
3.6328619 0.0071964264 0.39099562 100
5.0234742 0.73119688 1.6804252 37
5.7284479 1.0319419 1.5575743 27
5.3694282 0.87378788 1.3956643 67
4.8267679 -0.09324789 1.3557212 38
4.8858414 0.2465024 1.3108537 44
4.8571453 -0.13478851 1.3463575 68
5.561368 0.92047691 1.1628252 87
4.9700027 0.25590134 1.1171626 84
3.63957 -0.042267799 0.90872759 180
3.627399 -0.071233749 0.8356083 156
5.548645 0.86897945 1.3716823 69
5.5405264 0.90627813 1.2658871 65
4.7614346 0.24663115 1.3379825 47
6.0993857 0.51926279 0.97501892 53
5.0385761 0.25124979 1.1120039 89
5.5472536 0.84111357 1.7560719 65
5.0688305 0.24365616 1.4491407 47
4.8185554 0.23882341 1.4450846 75
4.8263421 -0.20776796 1.4149961 18
5.5604506 0.91529417 1.2320676 70
4.8267159 -0.23661184 1.2851706 62
5.8927813 0.96611071 1.1107608 87
4.4416165 0.12262297 1.0839528 56
5.6603422 0.85176849 1.7596937 61
5.6919274 0.87431383 1.4706432 67
5.0421243 0.25227213 1.3852072 32
4.851006 -0.18376827 1.2851375 73
5.9328251 0.9511385 1.0889856 28
5.8698201 0.93799305 1.8011047 30
5.4634223 0.7909894 1.7190454 110
4.843328 0.56968641 1.6080317 54
5.6771398 0.87282372 1.3582212 63
5.0334587 0.18601036 1.3883513 61
4.8730879 -0.20561075 1.4072857 77
4.9913392 0.16772509 1.0912228 85
5.8985715 0.89735985 1.7893647 45
5.3027205 0.7015295 1.7343894 10
5.1463227 0.64413786 1.6461202 52
5.7932019 0.87078428 1.4601172 75
5.7809649 0.8766098 1.3563401 64
4.7692318 0.17442226 1.3859216 47
4.8274355 -0.27425003 1.3409684 80
5.7457232 0.38616753 1.0581914 100
5.0335927 0.17319202 1.112975 87
3.9676371 -0.0032144189 1.1908346 86
3.6270738 -0.10164785 0.91117024 181
3.6106207 -0.15886927 0.83895892 156
5.9433479 0.87890673 1.9254193 55
5.9049973 0.87205982 1.8152081 21
5.1742592 0.71330833 1.7455571 10
5.8568463 0.87992048 1.3465016 62
4.8283582 -0.31404829 1.4067819 40
5.9080386 0.88701391 1.2181072 48
4.938128 -0.23817539 1.3575892 17
5.868176 0.39567471 1.0769895 48
4.4417348 0.018068314 1.0762347 47
4.8979635 0.53796625 1.6162108 96
4.8182073 -0.29365635 1.4594551 78
5.921102 0.8705759 1.3391325 22
4.8712325 -0.31084919 1.3998917 41
4.8546081 -0.27714491 1.3352056 74
5.5540576 0.79375648 1.600925 29
5.9333663 0.32823753 1.0661552 97
5.0177717 0.15391064 1.116057 91
5.6369448 0.71636152 1.7929006 19
5.5650215 0.78079319 1.5775721 25
4.8649068 -0.29442835 1.4517559 68
5.8317337 0.24091959 1.0528499 85
4.8131771 -0.35829735 1.4556544 70
4.7846808 0.062198639 1.4427384 91
4.9100099 -0.38700581 1.4385625 64
4.9029884 -0.3998332 1.3156927 80
5.2196493 0.1311717 1.0785301 104
3.9557247 -0.10849905 1.1435566 73
4.8413343 -0.38831854 1.5097969 51
5.0384598 0.12917852 1.3989871 71
4.8356543 -0.36933851 1.308746 81
5.9479461 0.25963163 1.0630699 104
5.3837538 0.14349651 1.0796107 93
4.4749618 -0.070456982 1.056672 43
3.9918878 -0.15988493 1.1348112 75
3.6438756 -0.23586559 0.92421013 82
3.6215663 -0.20497799 0.8342672 77
5.9469881 0.19127798 1.0633386 103
3.635231 -0.2063241 0.90620416 66
5.7220745 0.67106438 1.596459 41
4.8847837 0.041618824 1.2393264 72
4.8579645 -0.4682126 1.4408209 48
4.8726711 0.41158867 1.4904354 43
4.9353051 0.03422308 1.4265432 20
4.8215675 -0.47648573 1.3945816 17
4.8052464 -0.0586586 1.2486552 76
4.979394 -0.44538593 1.4472064 27
4.817071 -0.068374157 1.4461061 39
4.9359984 -0.45899773 1.4294119 30
5.3566961 0.0026550293 1.0609825 82
4.004529 -0.22554398 1.1307706 33
4.4385943 -0.1530509 0.077379398 64
4.9225345 -0.048651695 1.4092131 69
5.9262519 0.10173464 1.065841 80
4.4560633 -0.15319777 1.055271 51
3.5704954 -0.31687951 0.91782939 25
3.6331568 -0.3157382 0.83325404 122
5.0372214 0.35271025 1.5331497 8
4.8238883 -0.12612391 1.4423167 67
4.833457 -0.48483038 1.423533 72
4.9765096 -0.49236012 1.5047154 43
4.9305339 -0.088556767 1.4256425 91
5.9217134 0.055898666 1.0664554 106
5.3330584 -0.015997887 1.0655177 75
3.9211178 -0.29564905 1.12054 61
4.8457756 0.26816988 1.4493177 27
4.8448925 -0.54664421 1.4367721 63
4.8236055 -0.11807775 1.2389081 79
4.4665031 -0.21787691 1.0455484 69
5.0797515 0.30174208 1.5380156 47
4.8531818 -0.55276346 1.4638633 45
5.2698894 -0.072576523 1.0764992 83
3.9607811 -0.26291656 1.1420553 71
3.6404922 -0.38273287 0.88037008 68
3.6301529 -0.38992071 0.83393866 117
5.080946 0.30409956 1.4364593 90
4.8669362 -0.57282162 1.41202 23
5.2568312 -0.15051889 1.0726926 92
3.6386077 -0.34115314 1.0569746 171
3.5946226 -0.36239481 0.94211316 39
4.8461823 -0.60994053 1.5197232 68
4.8197794 -0.20355892 1.4650782 66
4.9051876 -0.19835186 1.2726701 62
5.935956 -0.036146164 1.0631416 81
4.4597893 -0.2666316 1.0421196 39
3.9611912 -0.35819817 1.1414385 55
4.7223797 -0.62698317 1.6070684 72
3.9047875 -0.37525082 1.1545166 57
4.8297935 -0.63948822 1.6022593 82
5.0441699 0.16640377 1.4500027 67
4.7682304 0.11679935 1.3824885 56
4.8025913 0.16692448 1.2363781 75
5.8922105 -0.10285997 1.0699382 97
5.2786713 -0.23198318 1.0597672 80
3.6358633 -0.41978455 1.0608937 148
3.615612 -0.46469545 0.91408616 165
3.6344564 -0.47540951 0.85300523 80
4.9238782 -0.65490723 1.544814 81
5.0927553 0.1605978 1.399303 70
4.7855215 0.14293766 1.2698917 86
3.6348929 -0.4795289 0.98461348 212
4.8450298 -0.7076149 1.5511477 103
4.083755 -0.37473392 1.2005001 75
4.8211823 -0.69600821 1.6030787 76
3.8995447 -0.46893883 1.1550606 48
3.6431665 -0.43589878 0.90607202 150
4.7496147 -0.79452705 1.6104168 60
4.84793 0.093873024 1.2217333 81
5.919805 -0.21189642 1.0566909 56
5.2578731 -0.30759954 1.057601 89
4.6162887 -0.7280407 1.6027342 67
4.7881093 0.07010746 1.2632533 57
3.7374597 -0.46182573 1.1600471 68
4.8239856 -0.77223539 1.6029874 59
4.2224221 -0.42471647 1.1485372 51
3.6342511 -0.52444887 0.9848032 202
3.627888 -0.55381918 0.90968883 173
3.6213489 -0.53826189 0.8369351 83
4.8744054 -0.36950827 1.5278425 54
5.0115209 0.078606129 1.446066 62
5.9594932 -0.24723339 1.0584464 14
5.2416925 -0.34274626 1.0581108 77
4.1561694 -0.47442961 1.159565 81
4.9680438 0.034366131 1.4515665 50
4.971683 0.0029468536 1.3530691 65
3.9022894 -0.5481081 1.1541964 65
4.8816423 -0.82782507 1.597198 60
4.8524594 -0.4664278 1.5253171 38
4.8487782 -0.4787674 1.3900367 69
4.8675847 -0.42122936 1.3202727 68
5.983386 -0.24404478 1.0469682 58
3.6411722 -0.5503335 0.90729934 164
4.8694959 -0.063693523 1.4662284 24
4.8389273 -0.44347525 1.4453356 47
4.5080991 -0.4619627 1.1167054 89
3.9949913 -0.49323988 1.1669605 68
4.9278846 -0.86370707 1.5922889 59
4.9907465 -0.47045946 1.5482607 35
4.9400558 -0.031602383 1.4572171 52
4.8555698 -0.070249557 1.2362689 71
5.2454557 -0.47311831 1.0838777 73
4.4431272 -0.55596733 1.0701953 45
3.6016176 -0.62660885 0.91636115 89
3.6166394 -0.61357737 0.99546373 87
4.8847132 -0.88452864 1.5965922 61
4.7850132 -0.54545403 1.5322109 72
4.85179 -0.15426254 1.4634093 68
3.9731524 -0.61426067 1.1425933 70
3.6328468 -0.62780666 1.0601277 122
4.8657308 -0.15298176 1.2260672 89
4.9543438 -0.92076635 1.5896865 61
5.2481394 -0.54107571 1.0778289 75
3.6080468 -0.62814093 0.432578 81
4.5197754 -0.88277435 1.6215465 66
4.4595127 -0.62856388 1.0644658 55
3.6357055 -0.70733929 0.96268272 51
3.6354392 -0.71810007 0.95933199 61
3.6516421 -0.63541651 0.41669992 99
4.787446 -0.63244534 1.5274985 67
4.8348374 -0.56228209 1.4680061 66
4.5222225 -0.56817675 1.1112076 115
3.8875575 -0.62600517 1.1567211 83
3.6362877 -0.65815115 1.0590149 116
3.6382675 -0.67467976 0.41876009 99
4.7140751 -0.63392067 1.5927109 67
4.8342409 -0.17492485 1.2312888 84
3.9923639 -0.71758175 1.1292256 65
3.649085 -0.68222809 0.41935569 100
4.3240705 -1.0142827 1.3904254 81
5.2645073 -0.63147926 1.0708438 78
3.9213507 -0.70669508 1.1486819 83
4.4718442 -0.71184444 1.0590039 63
4.8296309 -0.29064226 1.2796782 79
4.5380836 -0.67732906 1.1124089 79
5.2510352 -0.62900019 1.5752488 28
3.6318071 -0.78897381 0.93981349 79
3.6238265 -0.73213744 0.8514905 55
5.1935225 -0.70323896 1.5775398 64
5.2404151 -0.70923996 1.0863172 67
3.961916 -0.78453445 1.1256442 77
3.6437039 -0.77694893 0.9393838 93
4.2881131 -1.1175666 1.4129565 82
4.8645525 -0.29562044 1.2725176 47
4.4957285 -0.7973175 1.0483742 64
3.9345369 -0.7972703 1.131434 80
4.4509869 -0.77659714 1.1461719 69
5.2789731 -0.78999949 1.5759708 65
5.2401185 -0.72499275 1.084427 69
3.6369491 -0.86560583 0.98933434 194
3.6240938 -0.86955833 0.91949677 101
3.6066434 -0.80469036 0.83579618 64
5.3874912 -0.7912488 1.5767931 63
3.9869697 -0.87233543 1.1412801 80
5.4147749 -0.79150915 1.5739487 61
4.924468 -0.38627672 1.3626474 72
3.9019959 -1.1887612 1.4810969 70
4.4848328 -0.87918425 1.0503641 73
5.4047542 -0.83542442 1.5802063 80
5.2684221 -0.87533474 1.0608495 96
3.6438017 -0.85351419 0.91685283 76
3.7452984 -0.84128571 1.1427114 71
5.3279309 -0.85505676 1.5800226 53
3.8124063 -0.8925128 1.0585278 56
3.7295022 -0.91893911 1.0473633 73
4.4836745 -0.95442104 1.0475943 59
3.8557076 -0.95676041 1.0222514 61
3.7663016 -0.90697956 0.95449924 78
5.4347434 -0.91793489 1.5772365 70
5.0363855 -0.54833841 1.5432155 80
5.2435493 -0.95870686 1.0568542 99
4.5111475 -0.93051243 1.0391659 59
4.0030069 -0.91403961 0.96747762 57
3.9348216 -0.91976404 0.90791905 75
3.7832701 -0.92206097 0.87019974 80
3.7647579 -0.94326657 0.74339765 36
4.9982843 -0.48815966 1.5473994 65
4.4734774 -0.9286027 0.95834982 97
